# .PCD v0.7 - Point Cloud Data file format
VERSION 0.7
FIELDS x y z
SIZE 4 4 4
TYPE F F F
COUNT 1 1 1
WIDTH 800
HEIGHT 1
VIEWPOINT 0 0 0 1 0 0 0
POINTS 200
DATA ascii
-0.115846 0.233197 -0.802000
-0.007485 0.205088 -0.798000
-0.099921 0.164050 -0.795000
-0.092656 0.060300 -0.784000
-0.103489 -0.018949 -0.777000
0.133754 -0.034892 -0.775000
-0.002896 -0.015930 -0.772000
-0.033654 0.055603 -0.780000
-0.115846 0.231692 -0.802000
-0.007485 0.203591 -0.798000
-0.099921 0.162559 -0.795000
-0.092420 0.058679 -0.782000
-0.103489 -0.020406 -0.777000
0.133754 -0.036346 -0.775000
-0.002896 -0.017379 -0.772000
-0.033654 0.054139 -0.780000
-0.115846 0.230188 -0.802000
-0.007476 0.201841 -0.797000
-0.099921 0.161067 -0.795000
-0.092420 0.057212 -0.782000
-0.103489 -0.021864 -0.777000
0.133754 -0.037800 -0.775000
-0.002896 -0.018827 -0.772000
-0.033611 0.052609 -0.779000
-0.115846 0.228683 -0.802000
-0.007476 0.200345 -0.797000
-0.099921 0.159576 -0.795000
-0.092420 0.055745 -0.782000
-0.103489 -0.023322 -0.777000
0.133754 -0.039254 -0.775000
-0.002889 -0.020223 -0.770000
-0.033611 0.051147 -0.779000
-0.115846 0.227179 -0.802000
-0.007476 0.198850 -0.797000
-0.099670 0.157687 -0.793000
-0.092656 0.054417 -0.784000
-0.103223 -0.024715 -0.775000
0.133754 -0.040708 -0.775000
-0.002889 -0.021667 -0.770000
-0.033611 0.049686 -0.779000
-0.115846 0.225674 -0.802000
-0.007476 0.197355 -0.797000
-0.099921 0.156593 -0.795000
-0.092656 0.052946 -0.784000
-0.103223 -0.026169 -0.775000
0.133754 -0.042162 -0.775000
-0.002896 -0.023171 -0.772000
-0.033525 0.048101 -0.777000
-0.115846 0.224170 -0.802000
-0.007476 0.195860 -0.797000
-0.099921 0.155102 -0.795000
-0.092420 0.051344 -0.782000
-0.103223 -0.027623 -0.775000
0.133409 -0.043503 -0.773000
-0.002889 -0.024556 -0.770000
-0.033525 0.046643 -0.777000
-0.115846 0.222665 -0.802000
-0.007476 0.194365 -0.797000
-0.099921 0.153610 -0.795000
-0.092420 0.049877 -0.782000
-0.103223 -0.029077 -0.775000
0.133409 -0.044953 -0.773000
-0.002896 -0.026068 -0.772000
-0.033525 0.045185 -0.777000
-0.115846 0.221161 -0.802000
-0.007476 0.192870 -0.797000
-0.099670 0.151736 -0.793000
-0.092420 0.048410 -0.782000
-0.103223 -0.030531 -0.775000
0.133409 -0.046403 -0.773000
-0.002889 -0.027445 -0.770000
-0.033525 0.043728 -0.777000
-0.115846 0.219656 -0.802000
-0.007476 0.191375 -0.797000
-0.099921 0.150628 -0.795000
-0.092420 0.046943 -0.782000
-0.102957 -0.031902 -0.773000
0.133409 -0.047853 -0.773000
-0.002889 -0.028889 -0.770000
-0.033525 0.042270 -0.777000
-0.114627 0.233778 -0.804000
-0.005988 0.205088 -0.798000
-0.098430 0.164050 -0.795000
-0.091185 0.060300 -0.784000
-0.102032 -0.018949 -0.777000
0.135208 -0.034892 -0.775000
-0.001444 -0.015889 -0.770000
-0.032191 0.055603 -0.780000
-0.114627 0.232270 -0.804000
-0.005988 0.203591 -0.798000
-0.098430 0.162559 -0.795000
-0.090953 0.058679 -0.782000
-0.102032 -0.020406 -0.777000
0.135208 -0.036346 -0.775000
-0.001444 -0.017334 -0.770000
-0.032191 0.054139 -0.780000
-0.114627 0.230762 -0.804000
-0.005980 0.201841 -0.797000
-0.098430 0.161067 -0.795000
-0.090953 0.057212 -0.782000
-0.102032 -0.021864 -0.777000
0.135208 -0.037800 -0.775000
-0.001444 -0.018778 -0.770000
-0.032150 0.052609 -0.779000
-0.114627 0.229254 -0.804000
-0.005980 0.200345 -0.797000
-0.098430 0.159576 -0.795000
-0.090953 0.055745 -0.782000
-0.102032 -0.023322 -0.777000
0.134859 -0.039153 -0.773000
-0.001444 -0.020223 -0.770000
-0.032150 0.051147 -0.779000
-0.114342 0.227179 -0.802000
-0.005980 0.198850 -0.797000
-0.098430 0.158085 -0.795000
-0.090953 0.054278 -0.782000
-0.102032 -0.024779 -0.777000
0.134859 -0.040603 -0.773000
-0.001444 -0.021667 -0.770000
-0.032150 0.049686 -0.779000
-0.114342 0.225674 -0.802000
-0.005980 0.197355 -0.797000
-0.098430 0.156593 -0.795000
-0.090953 0.052811 -0.782000
-0.102032 -0.026237 -0.777000
0.134859 -0.042053 -0.773000
-0.001444 -0.023111 -0.770000
-0.032067 0.048101 -0.777000
-0.114342 0.224170 -0.802000
-0.005980 0.195860 -0.797000
-0.098430 0.155102 -0.795000
-0.090953 0.051344 -0.782000
-0.101769 -0.027623 -0.775000
0.134859 -0.043503 -0.773000
-0.001444 -0.024556 -0.770000
-0.032067 0.046643 -0.777000
-0.114342 0.222665 -0.802000
-0.005980 0.194365 -0.797000
-0.098430 0.153610 -0.795000
-0.090953 0.049877 -0.782000
-0.101769 -0.029077 -0.775000
0.134684 -0.044895 -0.772000
-0.001444 -0.026000 -0.770000
-0.032067 0.045185 -0.777000
-0.114342 0.221161 -0.802000
-0.005980 0.192870 -0.797000
-0.098430 0.152119 -0.795000
-0.090953 0.048410 -0.782000
-0.101769 -0.030531 -0.775000
0.134684 -0.046343 -0.772000
-0.001444 -0.027445 -0.770000
-0.032067 0.043728 -0.777000
-0.114056 0.219109 -0.800000
-0.005980 0.191375 -0.797000
-0.098430 0.150628 -0.795000
-0.090953 0.046943 -0.782000
-0.101769 -0.031985 -0.775000
0.134859 -0.047853 -0.773000
-0.001448 -0.028964 -0.772000
-0.032067 0.042270 -0.777000
-0.113119 0.233778 -0.804000
-0.004491 0.205088 -0.798000
-0.096939 0.164050 -0.795000
-0.089714 0.060300 -0.784000
-0.100574 -0.018949 -0.777000
0.136661 -0.034892 -0.775000
0.000000 -0.015889 -0.770000
-0.030688 0.055531 -0.779000
-0.113119 0.232270 -0.804000
-0.004491 0.203591 -0.798000
-0.096939 0.162559 -0.795000
-0.089486 0.058679 -0.782000
-0.100574 -0.020406 -0.777000
0.136661 -0.036346 -0.775000
0.000000 -0.017334 -0.770000
-0.030688 0.054070 -0.779000
-0.113119 0.230762 -0.804000
-0.004485 0.201841 -0.797000
-0.096939 0.161067 -0.795000
-0.089486 0.057212 -0.782000
-0.100574 -0.021864 -0.777000
0.136309 -0.037702 -0.773000
0.000000 -0.018778 -0.770000
-0.030688 0.052609 -0.779000
-0.113119 0.229254 -0.804000
-0.004485 0.200345 -0.797000
-0.096939 0.159576 -0.795000
-0.089486 0.055745 -0.782000
-0.100574 -0.023322 -0.777000
0.136309 -0.039153 -0.773000
0.000000 -0.020223 -0.770000
-0.030688 0.051147 -0.779000
-0.112837 0.227179 -0.802000
-0.004485 0.198850 -0.797000
-0.096939 0.158085 -0.795000
-0.089486 0.054278 -0.782000
-0.100574 -0.024779 -0.777000
0.136309 -0.040603 -0.773000
0.000000 -0.021667 -0.770000
-0.030610 0.049558 -0.777000
-0.112837 0.225674 -0.802000
-0.004485 0.197355 -0.797000
-0.096939 0.156593 -0.795000
-0.089486 0.052811 -0.782000
-0.100574 -0.026237 -0.777000
0.136309 -0.042053 -0.773000
0.000000 -0.023111 -0.770000
-0.030610 0.048101 -0.777000
-0.112837 0.224170 -0.802000
-0.004485 0.195860 -0.797000
-0.096939 0.155102 -0.795000
-0.089486 0.051344 -0.782000
-0.100315 -0.027623 -0.775000
0.136309 -0.043503 -0.773000
0.000000 -0.024556 -0.770000
-0.030610 0.046643 -0.777000
-0.112837 0.222665 -0.802000
-0.004485 0.194365 -0.797000
-0.097182 0.153997 -0.797000
-0.089486 0.049877 -0.782000
-0.100315 -0.029077 -0.775000
0.136132 -0.044895 -0.772000
0.000000 -0.026000 -0.770000
-0.030610 0.045185 -0.777000
-0.112837 0.221161 -0.802000
-0.004485 0.192870 -0.797000
-0.096939 0.152119 -0.795000
-0.089486 0.048410 -0.782000
-0.100315 -0.030531 -0.775000
0.136132 -0.046343 -0.772000
0.000000 -0.027445 -0.770000
-0.030610 0.043728 -0.777000
-0.112556 0.219109 -0.800000
-0.004485 0.191375 -0.797000
-0.097182 0.151007 -0.797000
-0.089486 0.046943 -0.782000
-0.100315 -0.031985 -0.775000
0.136309 -0.047853 -0.773000
0.000000 -0.028889 -0.770000
-0.030610 0.042270 -0.777000
-0.111610 0.233778 -0.804000
-0.002994 0.205088 -0.798000
-0.095687 0.164463 -0.797000
-0.088244 0.060300 -0.784000
-0.099117 -0.018949 -0.777000
0.138115 -0.034892 -0.775000
0.001444 -0.015889 -0.770000
-0.029227 0.055531 -0.779000
-0.111610 0.232270 -0.804000
-0.002994 0.203591 -0.798000
-0.095447 0.162559 -0.795000
-0.088019 0.058679 -0.782000
-0.099117 -0.020406 -0.777000
0.138115 -0.036346 -0.775000
0.001444 -0.017334 -0.770000
-0.029227 0.054070 -0.779000
-0.111610 0.230762 -0.804000
-0.002994 0.202094 -0.798000
-0.095447 0.161067 -0.795000
-0.088019 0.057212 -0.782000
-0.099117 -0.021864 -0.777000
0.138115 -0.037800 -0.775000
0.001444 -0.018778 -0.770000
-0.029227 0.052609 -0.779000
-0.111610 0.229254 -0.804000
-0.002990 0.200345 -0.797000
-0.095447 0.159576 -0.795000
-0.088019 0.055745 -0.782000
-0.099117 -0.023322 -0.777000
0.137759 -0.039153 -0.773000
0.001444 -0.020223 -0.770000
-0.029227 0.051147 -0.779000
-0.111333 0.227179 -0.802000
-0.002990 0.198850 -0.797000
-0.095447 0.158085 -0.795000
-0.088019 0.054278 -0.782000
-0.099117 -0.024779 -0.777000
0.137759 -0.040603 -0.773000
0.001444 -0.021667 -0.770000
-0.029152 0.049558 -0.777000
-0.111333 0.225674 -0.802000
-0.002990 0.197355 -0.797000
-0.095447 0.156593 -0.795000
-0.088244 0.052946 -0.784000
-0.099117 -0.026237 -0.777000
0.137759 -0.042053 -0.773000
0.001444 -0.023111 -0.770000
-0.029152 0.048101 -0.777000
-0.111333 0.224170 -0.802000
-0.002990 0.195860 -0.797000
-0.095447 0.155102 -0.795000
-0.088244 0.051475 -0.784000
-0.099117 -0.027694 -0.777000
0.137759 -0.043503 -0.773000
0.001444 -0.024556 -0.770000
-0.029152 0.046643 -0.777000
-0.111333 0.222665 -0.802000
-0.002990 0.194365 -0.797000
-0.095687 0.153997 -0.797000
-0.088019 0.049877 -0.782000
-0.099117 -0.029152 -0.777000
0.137581 -0.044895 -0.772000
0.001444 -0.026000 -0.770000
-0.029152 0.045185 -0.777000
-0.111333 0.221161 -0.802000
-0.002990 0.192870 -0.797000
-0.095687 0.152502 -0.797000
-0.088019 0.048410 -0.782000
-0.098861 -0.030531 -0.775000
0.137581 -0.046343 -0.772000
0.001444 -0.027445 -0.770000
-0.029152 0.043728 -0.777000
-0.111333 0.219656 -0.802000
-0.002990 0.191375 -0.797000
-0.095687 0.151007 -0.797000
-0.088244 0.047063 -0.784000
-0.098861 -0.031985 -0.775000
0.137759 -0.047853 -0.773000
0.001444 -0.028889 -0.770000
-0.029152 0.042270 -0.777000
-0.110102 0.233778 -0.804000
-0.001497 0.205088 -0.798000
-0.094192 0.164463 -0.797000
-0.086552 0.060146 -0.782000
-0.097659 -0.018949 -0.777000
0.139569 -0.034892 -0.775000
0.002889 -0.015889 -0.770000
-0.027766 0.055531 -0.779000
-0.110102 0.232270 -0.804000
-0.001497 0.203591 -0.798000
-0.094192 0.162968 -0.797000
-0.086552 0.058679 -0.782000
-0.097659 -0.020406 -0.777000
0.139569 -0.036346 -0.775000
0.002889 -0.017334 -0.770000
-0.027766 0.054070 -0.779000
-0.110376 0.231336 -0.806000
-0.001495 0.201841 -0.797000
-0.094192 0.161472 -0.797000
-0.086552 0.057212 -0.782000
-0.097659 -0.021864 -0.777000
0.139569 -0.037800 -0.775000
0.002889 -0.018778 -0.770000
-0.027766 0.052609 -0.779000
-0.110102 0.229254 -0.804000
-0.001495 0.200345 -0.797000
-0.093956 0.159576 -0.795000
-0.086552 0.055745 -0.782000
-0.097659 -0.023322 -0.777000
0.139209 -0.039153 -0.773000
0.002889 -0.020223 -0.770000
-0.027694 0.051016 -0.777000
-0.110102 0.227745 -0.804000
-0.001495 0.198850 -0.797000
-0.093956 0.158085 -0.795000
-0.086552 0.054278 -0.782000
-0.097659 -0.024779 -0.777000
0.139209 -0.040603 -0.773000
0.002889 -0.021667 -0.770000
-0.027694 0.049558 -0.777000
-0.110102 0.226237 -0.804000
-0.001495 0.197355 -0.797000
-0.093956 0.156593 -0.795000
-0.086552 0.052811 -0.782000
-0.097659 -0.026237 -0.777000
0.139209 -0.042053 -0.773000
0.002889 -0.023111 -0.770000
-0.027694 0.048101 -0.777000
-0.109828 0.224170 -0.802000
-0.001495 0.195860 -0.797000
-0.093956 0.155102 -0.795000
-0.086552 0.051344 -0.782000
-0.097659 -0.027694 -0.777000
0.139209 -0.043503 -0.773000
0.002889 -0.024556 -0.770000
-0.027766 0.046763 -0.779000
-0.109828 0.222665 -0.802000
-0.001495 0.194365 -0.797000
-0.093956 0.153610 -0.795000
-0.086552 0.049877 -0.782000
-0.097659 -0.029152 -0.777000
0.139029 -0.044895 -0.772000
0.002889 -0.026000 -0.770000
-0.027766 0.045302 -0.779000
-0.109828 0.221161 -0.802000
-0.001495 0.192870 -0.797000
-0.093956 0.152119 -0.795000
-0.086552 0.048410 -0.782000
-0.097408 -0.030531 -0.775000
0.139029 -0.046343 -0.772000
0.002889 -0.027445 -0.770000
-0.027694 0.043728 -0.777000
-0.109828 0.219656 -0.802000
-0.001495 0.191375 -0.797000
-0.093956 0.150628 -0.795000
-0.086552 0.046943 -0.782000
-0.097408 -0.031985 -0.775000
0.139029 -0.047791 -0.772000
0.002889 -0.028889 -0.770000
-0.027694 0.042270 -0.777000
-0.108594 0.233778 -0.804000
0.000000 0.205088 -0.798000
-0.092697 0.164463 -0.797000
-0.085085 0.060146 -0.782000
-0.096201 -0.018949 -0.777000
0.141023 -0.034892 -0.775000
0.004333 -0.015889 -0.770000
-0.026338 0.055603 -0.780000
-0.108594 0.232270 -0.804000
0.000000 0.203591 -0.798000
-0.092697 0.162968 -0.797000
-0.085085 0.058679 -0.782000
-0.096201 -0.020406 -0.777000
0.141023 -0.036346 -0.775000
0.004333 -0.017334 -0.770000
-0.026338 0.054139 -0.780000
-0.108864 0.231336 -0.806000
0.000000 0.201841 -0.797000
-0.092697 0.161472 -0.797000
-0.085085 0.057212 -0.782000
-0.096201 -0.021864 -0.777000
0.140659 -0.037702 -0.773000
0.004333 -0.018778 -0.770000
-0.026304 0.052609 -0.779000
-0.108594 0.229254 -0.804000
0.000000 0.200345 -0.797000
-0.092697 0.159977 -0.797000
-0.085085 0.055745 -0.782000
-0.096201 -0.023322 -0.777000
0.140659 -0.039153 -0.773000
0.004333 -0.020223 -0.770000
-0.026304 0.051147 -0.779000
-0.108594 0.227745 -0.804000
0.000000 0.198850 -0.797000
-0.092697 0.158482 -0.797000
-0.085085 0.054278 -0.782000
-0.096201 -0.024779 -0.777000
0.140659 -0.040603 -0.773000
0.004333 -0.021667 -0.770000
-0.026237 0.049558 -0.777000
-0.108594 0.226237 -0.804000
0.000000 0.197355 -0.797000
-0.092465 0.156593 -0.795000
-0.085085 0.052811 -0.782000
-0.096201 -0.026237 -0.777000
0.140659 -0.042053 -0.773000
0.004333 -0.023111 -0.770000
-0.026237 0.048101 -0.777000
-0.108324 0.224170 -0.802000
0.000000 0.195860 -0.797000
-0.092465 0.155102 -0.795000
-0.085085 0.051344 -0.782000
-0.096201 -0.027694 -0.777000
0.140659 -0.043503 -0.773000
0.004333 -0.024556 -0.770000
-0.026304 0.046763 -0.779000
-0.108324 0.222665 -0.802000
0.000000 0.194365 -0.797000
-0.092465 0.153610 -0.795000
-0.085085 0.049877 -0.782000
-0.095954 -0.029077 -0.775000
0.140477 -0.044895 -0.772000
0.004333 -0.026000 -0.770000
-0.026304 0.045302 -0.779000
-0.108324 0.221161 -0.802000
0.000000 0.192870 -0.797000
-0.092465 0.152119 -0.795000
-0.085085 0.048410 -0.782000
-0.096201 -0.030610 -0.777000
0.140477 -0.046343 -0.772000
0.004333 -0.027445 -0.770000
-0.026237 0.043728 -0.777000
-0.108324 0.219656 -0.802000
0.000000 0.190895 -0.795000
-0.092465 0.150628 -0.795000
-0.085085 0.046943 -0.782000
-0.096201 -0.032067 -0.777000
0.140659 -0.047853 -0.773000
0.004333 -0.028889 -0.770000
-0.026237 0.042270 -0.777000
-0.107086 0.233778 -0.804000
0.001497 0.205088 -0.798000
-0.091202 0.164463 -0.797000
-0.083832 0.060300 -0.784000
-0.094744 -0.018949 -0.777000
0.142477 -0.034892 -0.775000
0.005778 -0.015889 -0.770000
-0.024843 0.055531 -0.779000
-0.107086 0.232270 -0.804000
0.001497 0.203591 -0.798000
-0.091202 0.162968 -0.797000
-0.083618 0.058679 -0.782000
-0.094744 -0.020406 -0.777000
0.142477 -0.036346 -0.775000
0.005778 -0.017334 -0.770000
-0.024843 0.054070 -0.779000
-0.107352 0.231336 -0.806000
0.001495 0.201841 -0.797000
-0.091202 0.161472 -0.797000
-0.083618 0.057212 -0.782000
-0.094744 -0.021864 -0.777000
0.142477 -0.037800 -0.775000
0.005778 -0.018778 -0.770000
-0.024843 0.052609 -0.779000
-0.107086 0.229254 -0.804000
0.001495 0.200345 -0.797000
-0.091202 0.159977 -0.797000
-0.083618 0.055745 -0.782000
-0.094744 -0.023322 -0.777000
0.142109 -0.039153 -0.773000
0.005778 -0.020223 -0.770000
-0.024843 0.051147 -0.779000
-0.107086 0.227745 -0.804000
0.001495 0.198850 -0.797000
-0.091202 0.158482 -0.797000
-0.083618 0.054278 -0.782000
-0.094744 -0.024779 -0.777000
0.142109 -0.040603 -0.773000
0.005763 -0.021611 -0.768000
-0.024779 0.049558 -0.777000
-0.107086 0.226237 -0.804000
0.001495 0.197355 -0.797000
-0.090973 0.156593 -0.795000
-0.083618 0.052811 -0.782000
-0.094500 -0.026169 -0.775000
0.142109 -0.042053 -0.773000
0.005763 -0.023051 -0.768000
-0.024779 0.048101 -0.777000
-0.106819 0.224170 -0.802000
0.001495 0.195860 -0.797000
-0.090973 0.155102 -0.795000
-0.083618 0.051344 -0.782000
-0.094500 -0.027623 -0.775000
0.141925 -0.043447 -0.772000
0.005763 -0.024492 -0.768000
-0.024843 0.046763 -0.779000
-0.107086 0.223221 -0.804000
0.001495 0.194365 -0.797000
-0.090973 0.153610 -0.795000
-0.083618 0.049877 -0.782000
-0.094500 -0.029077 -0.775000
0.141925 -0.044895 -0.772000
0.005763 -0.025933 -0.768000
-0.024843 0.045302 -0.779000
-0.106819 0.221161 -0.802000
0.001495 0.192870 -0.797000
-0.090973 0.152119 -0.795000
-0.083618 0.048410 -0.782000
-0.094500 -0.030531 -0.775000
0.141925 -0.046343 -0.772000
0.005778 -0.027445 -0.770000
-0.024779 0.043728 -0.777000
-0.106819 0.219656 -0.802000
0.001495 0.191375 -0.797000
-0.090973 0.150628 -0.795000
-0.083618 0.046943 -0.782000
-0.094744 -0.032067 -0.777000
0.142109 -0.047853 -0.773000
0.005778 -0.028889 -0.770000
-0.024779 0.042270 -0.777000
-0.105577 0.233778 -0.804000
0.002994 0.205088 -0.798000
-0.089707 0.164463 -0.797000
-0.082361 0.060300 -0.784000
-0.093286 -0.018949 -0.777000
0.143931 -0.034892 -0.775000
0.007222 -0.015889 -0.770000
-0.023382 0.055531 -0.779000
-0.105577 0.232270 -0.804000
0.002994 0.203591 -0.798000
-0.089707 0.162968 -0.797000
-0.082151 0.058679 -0.782000
-0.093286 -0.020406 -0.777000
0.143931 -0.036346 -0.775000
0.007222 -0.017334 -0.770000
-0.023382 0.054070 -0.779000
-0.105577 0.230762 -0.804000
0.002994 0.202094 -0.798000
-0.089707 0.161472 -0.797000
-0.082151 0.057212 -0.782000
-0.093286 -0.021864 -0.777000
0.143931 -0.037800 -0.775000
0.007222 -0.018778 -0.770000
-0.023382 0.052609 -0.779000
-0.105577 0.229254 -0.804000
0.002990 0.200345 -0.797000
-0.089482 0.159576 -0.795000
-0.082151 0.055745 -0.782000
-0.093286 -0.023322 -0.777000
0.143559 -0.039153 -0.773000
0.007222 -0.020223 -0.770000
-0.023382 0.051147 -0.779000
-0.105577 0.227745 -0.804000
0.002990 0.198850 -0.797000
-0.089482 0.158085 -0.795000
-0.082151 0.054278 -0.782000
-0.093286 -0.024779 -0.777000
0.143559 -0.040603 -0.773000
0.007204 -0.021611 -0.768000
-0.023322 0.049558 -0.777000
-0.105315 0.225674 -0.802000
0.002990 0.197355 -0.797000
-0.089482 0.156593 -0.795000
-0.082151 0.052811 -0.782000
-0.093286 -0.026237 -0.777000
0.143559 -0.042053 -0.773000
0.007204 -0.023051 -0.768000
-0.023322 0.048101 -0.777000
-0.105315 0.224170 -0.802000
0.002990 0.195860 -0.797000
-0.089482 0.155102 -0.795000
-0.082151 0.051344 -0.782000
-0.093046 -0.027623 -0.775000
0.143559 -0.043503 -0.773000
0.007204 -0.024492 -0.768000
-0.023322 0.046643 -0.777000
-0.105315 0.222665 -0.802000
0.002990 0.194365 -0.797000
-0.089482 0.153610 -0.795000
-0.082151 0.049877 -0.782000
-0.093046 -0.029077 -0.775000
0.143374 -0.044895 -0.772000
0.007204 -0.025933 -0.768000
-0.023322 0.045185 -0.777000
-0.105315 0.221161 -0.802000
0.002990 0.192870 -0.797000
-0.089482 0.152119 -0.795000
-0.081941 0.048286 -0.780000
-0.093046 -0.030531 -0.775000
0.143559 -0.046403 -0.773000
0.007204 -0.027374 -0.768000
-0.023322 0.043728 -0.777000
-0.105315 0.219656 -0.802000
0.002990 0.191375 -0.797000
-0.089482 0.150628 -0.795000
-0.082151 0.046943 -0.782000
-0.093286 -0.032067 -0.777000
0.143559 -0.047853 -0.773000
0.007222 -0.028889 -0.770000
-0.023322 0.042270 -0.777000
-0.104328 0.234360 -0.806000
0.004491 0.205088 -0.798000
-0.088212 0.164463 -0.797000
-0.080890 0.060300 -0.784000
-0.091829 -0.018949 -0.777000
0.145384 -0.034892 -0.775000
0.008667 -0.015889 -0.770000
-0.021920 0.055531 -0.779000
-0.104328 0.232848 -0.806000
0.004491 0.203591 -0.798000
-0.088212 0.162968 -0.797000
-0.080890 0.058829 -0.784000
-0.091829 -0.020406 -0.777000
0.145384 -0.036346 -0.775000
0.008667 -0.017334 -0.770000
-0.021920 0.054070 -0.779000
-0.104328 0.231336 -0.806000
0.004491 0.202094 -0.798000
-0.088212 0.161472 -0.797000
-0.080890 0.057358 -0.784000
-0.091829 -0.021864 -0.777000
0.145384 -0.037800 -0.775000
0.008667 -0.018778 -0.770000
-0.021920 0.052609 -0.779000
-0.104069 0.229254 -0.804000
0.004485 0.200345 -0.797000
-0.087990 0.159576 -0.795000
-0.080684 0.055745 -0.782000
-0.091829 -0.023322 -0.777000
0.145009 -0.039153 -0.773000
0.008667 -0.020223 -0.770000
-0.021920 0.051147 -0.779000
-0.104069 0.227745 -0.804000
0.004485 0.198850 -0.797000
-0.088212 0.158482 -0.797000
-0.080684 0.054278 -0.782000
-0.091829 -0.024779 -0.777000
0.145009 -0.040603 -0.773000
0.008644 -0.021611 -0.768000
-0.021864 0.049558 -0.777000
-0.104069 0.226237 -0.804000
0.004485 0.197355 -0.797000
-0.087990 0.156593 -0.795000
-0.080684 0.052811 -0.782000
-0.091829 -0.026237 -0.777000
0.145009 -0.042053 -0.773000
0.008644 -0.023051 -0.768000
-0.021864 0.048101 -0.777000
-0.103810 0.224170 -0.802000
0.004485 0.195860 -0.797000
-0.087990 0.155102 -0.795000
-0.080684 0.051344 -0.782000
-0.091829 -0.027694 -0.777000
0.145009 -0.043503 -0.773000
0.008644 -0.024492 -0.768000
-0.021864 0.046643 -0.777000
-0.103810 0.222665 -0.802000
0.004485 0.194365 -0.797000
-0.087990 0.153610 -0.795000
-0.080477 0.049750 -0.780000
-0.091592 -0.029077 -0.775000
0.145009 -0.044953 -0.773000
0.008644 -0.025933 -0.768000
-0.021864 0.045185 -0.777000
-0.103810 0.221161 -0.802000
0.004485 0.192870 -0.797000
-0.087990 0.152119 -0.795000
-0.080477 0.048286 -0.780000
-0.091829 -0.030610 -0.777000
0.145009 -0.046403 -0.773000
0.008644 -0.027374 -0.768000
-0.021864 0.043728 -0.777000
-0.103810 0.219656 -0.802000
0.004485 0.191375 -0.797000
-0.087990 0.150628 -0.795000
-0.080477 0.046823 -0.780000
-0.091829 -0.032067 -0.777000
0.145384 -0.047977 -0.775000
0.008644 -0.028814 -0.768000
-0.021864 0.042270 -0.777000
-0.102561 0.233778 -0.804000
0.005988 0.205088 -0.798000
-0.086717 0.164463 -0.797000
-0.079419 0.060300 -0.784000
-0.090371 -0.018949 -0.777000
0.146838 -0.034892 -0.775000
0.010111 -0.015889 -0.770000
-0.020459 0.055531 -0.779000
-0.102561 0.232270 -0.804000
0.005988 0.203591 -0.798000
-0.086499 0.162559 -0.795000
-0.079419 0.058829 -0.784000
-0.090371 -0.020406 -0.777000
0.146838 -0.036346 -0.775000
0.010111 -0.017334 -0.770000
-0.020459 0.054070 -0.779000
-0.102561 0.230762 -0.804000
0.005988 0.202094 -0.798000
-0.086717 0.161472 -0.797000
-0.079419 0.057358 -0.784000
-0.090371 -0.021864 -0.777000
0.146838 -0.037800 -0.775000
0.010111 -0.018778 -0.770000
-0.020459 0.052609 -0.779000
-0.102561 0.229254 -0.804000
0.005980 0.200345 -0.797000
-0.086499 0.159576 -0.795000
-0.079419 0.055888 -0.784000
-0.090371 -0.023322 -0.777000
0.146838 -0.039254 -0.775000
0.010111 -0.020223 -0.770000
-0.020406 0.051016 -0.777000
-0.102306 0.227179 -0.802000
0.005980 0.198850 -0.797000
-0.086717 0.158482 -0.797000
-0.079419 0.054417 -0.784000
-0.090371 -0.024779 -0.777000
0.146838 -0.040708 -0.775000
0.010085 -0.021611 -0.768000
-0.020406 0.049558 -0.777000
-0.102306 0.225674 -0.802000
0.005980 0.197355 -0.797000
-0.086717 0.156987 -0.797000
-0.079217 0.052811 -0.782000
-0.090371 -0.026237 -0.777000
0.146838 -0.042162 -0.775000
0.010085 -0.023051 -0.768000
-0.020406 0.048101 -0.777000
-0.102306 0.224170 -0.802000
0.005980 0.195860 -0.797000
-0.086499 0.155102 -0.795000
-0.079217 0.051344 -0.782000
-0.090371 -0.027694 -0.777000
0.146838 -0.043615 -0.775000
0.010085 -0.024492 -0.768000
-0.020406 0.046643 -0.777000
-0.102306 0.222665 -0.802000
0.005980 0.194365 -0.797000
-0.086717 0.153997 -0.797000
-0.079217 0.049877 -0.782000
-0.090138 -0.029077 -0.775000
0.146838 -0.045069 -0.775000
0.010085 -0.025933 -0.768000
-0.020406 0.045185 -0.777000
-0.102561 0.221712 -0.804000
0.005980 0.192870 -0.797000
-0.086499 0.152119 -0.795000
-0.079217 0.048410 -0.782000
-0.090371 -0.030610 -0.777000
0.146838 -0.046523 -0.775000
0.010085 -0.027374 -0.768000
-0.020406 0.043728 -0.777000
-0.102306 0.219656 -0.802000
0.005980 0.191375 -0.797000
-0.086499 0.150628 -0.795000
-0.079217 0.046943 -0.782000
-0.090371 -0.032067 -0.777000
0.146838 -0.047977 -0.775000
0.010085 -0.028814 -0.768000
-0.020406 0.042270 -0.777000
