ply
format ascii 1.0
element vertex 1021
property float x
property float y
property float z
property float nx
property float ny
property float nz
property uchar red
property uchar green
property uchar blue
end_header
0.00178149 -0.0359002 -0.672506 0 0 0 91 85 53
0.00178594 -0.0352287 -0.671229 0 0 0 94 87 45
0.0017904 -0.0345571 -0.669951 0 0 0 85 78 36
0.00179486 -0.0338856 -0.668673 0 0 0 44 34 9
0.00179932 -0.0332141 -0.667396 0 0 0 14 2 12
0.0022182 0.0591051 -0.687129 0 0 0 6 0 20
0.00227112 0.0704515 -0.68811 0 0 0 5 1 18
0.00227891 0.0718176 -0.686801 0 0 0 2 1 9
0.00228396 0.0725781 -0.685354 0 0 0 1 1 1
0.00228901 0.0733387 -0.683907 0 0 0 1 2 0
0.00229589 0.0745042 -0.682549 0 0 0 1 2 0
0.00230095 0.0752652 -0.681102 0 0 0 1 1 0
0.002306 0.0760261 -0.679654 0 0 0 1 1 0
0.00231105 0.076787 -0.678206 0 0 0 1 1 3
0.0023161 0.0775479 -0.676759 0 0 0 2 0 8
0.00231561 0.0770885 -0.675054 0 0 0 5 0 8
0.00231326 0.07622 -0.673268 0 0 0 9 0 6
0.00231182 0.0755522 -0.671529 0 0 0 19 5 2
0.00231175 0.0751879 -0.669858 0 0 0 60 43 23
0.00170401 0.808271 0.488275 0 0 0 88 69 39
0.00170401 0.808271 0.488275 0 0 0 175 133 157
0.00184647 -0.0290066 -0.640048 0 0 0 169 135 149
0.00185088 -0.028343 -0.638785 0 0 0 163 132 147
0.00185528 -0.0276793 -0.637522 0 0 0 148 116 139
0.00185969 -0.0270156 -0.63626 0 0 0 145 113 137
0.0018641 -0.0263519 -0.634997 0 0 0 133 104 124
0.0018685 -0.0256882 -0.633734 0 0 0 125 97 111
0.00187291 -0.0250246 -0.632472 0 0 0 102 77 83
0.00170401 0.808271 0.488275 0 0 0 78 47 78
0.00170401 0.808271 0.488275 0 0 0 77 47 73
0.00312132 -0.0503774 -0.761512 0 0 0 184 154 94
0.00313926 -0.0475896 -0.760937 0 0 0 186 156 96
0.0031439 -0.0468911 -0.759608 0 0 0 177 149 84
0.00314853 -0.0461927 -0.75828 0 0 0 168 142 68
0.00315317 -0.0454943 -0.756951 0 0 0 158 134 46
0.00315781 -0.0447959 -0.755622 0 0 0 148 124 38
0.00314846 -0.046294 -0.753529 0 0 0 136 106 36
0.00315065 -0.0459799 -0.752071 0 0 0 136 103 52
0.00315344 -0.0455708 -0.750648 0 0 0 131 94 68
0.00315806 -0.044875 -0.749325 0 0 0 130 92 81
0.00316146 -0.0443709 -0.747936 0 0 0 136 97 90
0.00316363 -0.044059 -0.746483 0 0 0 141 102 95
0.00316336 -0.0441318 -0.744902 0 0 0 154 118 106
0.00316185 -0.0443983 -0.74326 0 0 0 176 139 131
0.00316523 -0.0438971 -0.741876 0 0 0 186 150 152
0.00316247 -0.0443588 -0.740176 0 0 0 194 157 165
0.00315356 -0.0457867 -0.738163 0 0 0 176 138 149
0.00315692 -0.045289 -0.736787 0 0 0 171 133 144
0.0031615 -0.0445986 -0.735473 0 0 0 167 131 135
0.00316608 -0.0439082 -0.73416 0 0 0 161 125 127
0.00317067 -0.0432178 -0.732846 0 0 0 149 112 119
0.00317525 -0.0425274 -0.731533 0 0 0 151 111 120
0.0031786 -0.0420309 -0.730158 0 0 0 150 110 119
0.003177 -0.0423104 -0.728541 0 0 0 150 108 118
0.00317663 -0.0423976 -0.726987 0 0 0 152 112 120
0.00317687 -0.042389 -0.725467 0 0 0 154 115 120
0.00316966 -0.0435486 -0.723589 0 0 0 149 113 117
0.00316181 -0.044809 -0.721688 0 0 0 148 112 116
0.00316387 -0.0445139 -0.720267 0 0 0 147 112 116
0.00316717 -0.0440246 -0.718907 0 0 0 146 112 113
0.00317047 -0.0435358 -0.717547 0 0 0 140 106 104
0.00317128 -0.0434379 -0.716071 0 0 0 134 101 94
0.00317582 -0.0427545 -0.714771 0 0 0 126 94 83
0.00318035 -0.0420711 -0.713471 0 0 0 122 89 80
0.00318489 -0.0413877 -0.71217 0 0 0 123 89 87
0.00318943 -0.0407043 -0.71087 0 0 0 125 90 97
0.00319396 -0.0400208 -0.70957 0 0 0 128 90 111
0.0031985 -0.0393374 -0.70827 0 0 0 130 92 117
0.00319677 -0.0396369 -0.70669 0 0 0 131 93 116
0.00319754 -0.0395446 -0.705225 0 0 0 127 92 112
0.00319453 -0.0400443 -0.703597 0 0 0 125 91 107
0.0031978 -0.0395605 -0.702246 0 0 0 125 89 101
0.00320232 -0.0388797 -0.700951 0 0 0 125 89 99
0.00320558 -0.0383964 -0.699602 0 0 0 124 89 96
0.00320695 -0.0382097 -0.698172 0 0 0 124 89 95
0.00320705 -0.0382219 -0.696691 0 0 0 121 89 94
0.00320777 -0.0381362 -0.695238 0 0 0 122 89 96
0.00320975 -0.0378535 -0.693841 0 0 0 125 94 100
0.00321299 -0.0373731 -0.692497 0 0 0 123 94 99
0.00321497 -0.0370916 -0.691102 0 0 0 120 94 97
0.00321187 -0.0376054 -0.6895 0 0 0 127 103 103
0.00321636 -0.0369283 -0.688212 0 0 0 127 106 105
0.00322086 -0.0362512 -0.686924 0 0 0 120 101 97
0.00322027 -0.0363709 -0.685432 0 0 0 112 97 94
0.00322476 -0.0356944 -0.684145 0 0 0 94 84 83
0.00321779 -0.0368141 -0.682406 0 0 0 92 88 76
0.00321909 -0.0366384 -0.680998 0 0 0 89 91 51
0.00322293 -0.036064 -0.67969 0 0 0 87 94 40
0.00321336 -0.0375905 -0.677865 0 0 0 88 97 44
0.00321527 -0.0373186 -0.676488 0 0 0 84 89 48
0.00322101 -0.0364461 -0.675258 0 0 0 82 81 61
0.00322676 -0.0355732 -0.674028 0 0 0 86 83 64
0.00323635 -0.0340978 -0.67294 0 0 0 82 78 40
0.00324082 -0.0334247 -0.671659 0 0 0 84 78 30
0.00324528 -0.0327516 -0.670379 0 0 0 80 73 27
0.00324975 -0.0320785 -0.669098 0 0 0 47 40 11
0.00325422 -0.0314054 -0.667818 0 0 0 14 5 8
0.00338804 -0.010467 -0.671183 0 0 0 8 0 16
0.00390467 0.0704464 -0.688113 0 0 0 6 3 14
0.0039239 0.0734285 -0.687169 0 0 0 4 3 8
0.00393154 0.0745948 -0.68581 0 0 0 2 2 2
0.0039366 0.0753571 -0.684359 0 0 0 1 1 0
0.00394166 0.0761194 -0.682909 0 0 0 1 1 0
0.00394672 0.0768817 -0.681459 0 0 0 0 0 0
0.00395178 0.077644 -0.680008 0 0 0 0 0 0
0.00395425 0.0780003 -0.678471 0 0 0 2 0 1
0.00395801 0.078559 -0.676978 0 0 0 4 0 5
0.00395918 0.0787106 -0.6754 0 0 0 6 0 6
0.00396423 0.0794719 -0.673952 0 0 0 10 0 1
0.00395859 0.078558 -0.672156 0 0 0 15 2 0
0.00393723 0.0751829 -0.669861 0 0 0 35 20 0
0.00170401 0.808271 0.488275 0 0 0 182 143 144
0.00170401 0.808271 0.488275 0 0 0 174 134 145
0.00327292 -0.0290111 -0.64005 0 0 0 166 133 140
0.00327732 -0.0283474 -0.638788 0 0 0 157 126 131
0.00328173 -0.0276837 -0.637525 0 0 0 144 115 119
0.00328614 -0.02702 -0.636262 0 0 0 140 111 115
0.00329054 -0.0263563 -0.635 0 0 0 121 95 98
0.00329495 -0.0256926 -0.633737 0 0 0 113 86 93
0.00329936 -0.0250289 -0.632474 0 0 0 95 67 81
0.0046183 -0.050382 -0.761515 0 0 0 174 137 67
0.00465147 -0.0462634 -0.761417 0 0 0 179 143 67
0.00465611 -0.0455637 -0.760086 0 0 0 183 148 67
0.00466076 -0.0448641 -0.758755 0 0 0 175 141 54
0.0046654 -0.0441644 -0.757424 0 0 0 158 125 32
0.00467005 -0.0434648 -0.756093 0 0 0 146 112 25
0.00464764 -0.0460121 -0.753631 0 0 0 130 96 25
0.00465067 -0.0455066 -0.75224 0 0 0 131 94 42
0.00464972 -0.0454797 -0.750684 0 0 0 127 88 57
0.00465434 -0.0447839 -0.74936 0 0 0 130 91 74
0.00465816 -0.0441838 -0.748004 0 0 0 143 102 96
0.00466118 -0.0436799 -0.746615 0 0 0 152 112 110
0.0046626 -0.0433683 -0.745163 0 0 0 162 124 121
0.00466722 -0.0426731 -0.74384 0 0 0 174 135 136
0.00466543 -0.0427473 -0.742262 0 0 0 185 148 156
0.00466043 -0.0432081 -0.74056 0 0 0 189 151 166
0.0046474 -0.0446347 -0.738545 0 0 0 172 133 151
0.004652 -0.0439432 -0.737229 0 0 0 167 129 144
0.00465498 -0.0434446 -0.735851 0 0 0 160 122 133
0.00465957 -0.0427532 -0.734536 0 0 0 159 119 128
0.00466416 -0.0420618 -0.73322 0 0 0 154 114 123
0.00466554 -0.0417576 -0.731782 0 0 0 156 114 124
0.00467012 -0.0410665 -0.730467 0 0 0 148 106 116
0.00467471 -0.0403754 -0.729152 0 0 0 149 109 117
0.00467446 -0.0402667 -0.727656 0 0 0 152 113 118
0.00466614 -0.0411306 -0.725861 0 0 0 153 114 117
0.00465699 -0.0420945 -0.724041 0 0 0 147 111 113
0.00464298 -0.0436455 -0.722048 0 0 0 143 107 109
0.00463621 -0.0443237 -0.720329 0 0 0 140 105 109
0.00463752 -0.0440292 -0.718909 0 0 0 141 107 108
0.00464044 -0.0435403 -0.717549 0 0 0 140 106 105
0.00464174 -0.0432471 -0.716132 0 0 0 133 100 95
0.00465114 -0.0419769 -0.715005 0 0 0 125 92 83
0.00465569 -0.0412928 -0.713703 0 0 0 124 90 81
0.00466023 -0.0406087 -0.712402 0 0 0 126 90 90
0.00466477 -0.0399246 -0.7111 0 0 0 130 93 101
0.00466931 -0.0392404 -0.709799 0 0 0 132 93 114
0.00467385 -0.0385564 -0.708497 0 0 0 132 92 118
0.00466048 -0.0400346 -0.706581 0 0 0 127 92 116
0.00466012 -0.0399427 -0.705117 0 0 0 126 91 113
0.00465812 -0.0400489 -0.703599 0 0 0 125 91 107
0.00466265 -0.0393679 -0.702304 0 0 0 125 92 103
0.00466717 -0.0386869 -0.701008 0 0 0 125 93 98
0.00467005 -0.0382034 -0.699659 0 0 0 125 90 94
0.0046713 -0.0379178 -0.698256 0 0 0 121 89 92
0.00467337 -0.0375341 -0.696881 0 0 0 119 87 90
0.00467706 -0.036953 -0.69556 0 0 0 119 88 94
0.00467994 -0.036471 -0.694213 0 0 0 126 97 102
0.00468445 -0.0357911 -0.69292 0 0 0 126 99 104
0.00468897 -0.0351112 -0.691626 0 0 0 127 102 105
0.0046902 -0.0348286 -0.690229 0 0 0 132 111 108
0.00469471 -0.034149 -0.688936 0 0 0 134 114 107
0.00469922 -0.0334695 -0.687643 0 0 0 124 106 94
0.00470373 -0.0327899 -0.68635 0 0 0 111 97 88
0.00469177 -0.034104 -0.684552 0 0 0 93 83 82
0.00469133 -0.0340248 -0.683112 0 0 0 90 86 77
0.00468923 -0.0341464 -0.681624 0 0 0 88 89 55
0.00469042 -0.0338695 -0.680237 0 0 0 88 94 46
0.00467922 -0.0350941 -0.678483 0 0 0 92 100 51
0.0046746 -0.0355209 -0.676931 0 0 0 92 99 58
0.00467908 -0.0348472 -0.675649 0 0 0 93 95 71
0.00467527 -0.0351765 -0.674127 0 0 0 99 97 72
0.00468305 -0.0341023 -0.672943 0 0 0 91 88 43
0.00468752 -0.0334291 -0.671662 0 0 0 80 77 26
0.00469199 -0.032756 -0.670381 0 0 0 72 65 19
0.00469646 -0.0320829 -0.669101 0 0 0 47 40 12
0.00470093 -0.0314098 -0.66782 0 0 0 13 4 9
0.00470291 -0.0310392 -0.66647 0 0 0 7 3 18
0.00553822 0.0704414 -0.688116 0 0 0 4 4 14
0.00556157 0.0734234 -0.687172 0 0 0 1 2 6
0.00557829 0.0756006 -0.686039 0 0 0 3 3 3
0.00558336 0.0763637 -0.684587 0 0 0 2 2 0
0.00558843 0.0771269 -0.683135 0 0 0 1 1 1
0.00559349 0.0778901 -0.681683 0 0 0 0 0 0
0.00559856 0.0786533 -0.680231 0 0 0 0 0 0
0.00560196 0.0792135 -0.678735 0 0 0 1 1 1
0.00560535 0.0797733 -0.677241 0 0 0 3 1 4
0.00560204 0.0795191 -0.675575 0 0 0 7 1 3
0.0056071 0.0802811 -0.674125 0 0 0 9 0 0
0.00561216 0.081043 -0.672676 0 0 0 14 2 0
0.00559206 0.0787463 -0.670597 0 0 0 21 8 0
0.00170401 0.808271 0.488275 0 0 0 180 143 135
0.00170401 0.808271 0.488275 0 0 0 171 132 137
0.00170401 0.808271 0.488275 0 0 0 157 125 130
0.00170401 0.808271 0.488275 0 0 0 151 121 121
0.00170401 0.808271 0.488275 0 0 0 135 108 97
0.00170401 0.808271 0.488275 0 0 0 129 103 88
0.00617603 -0.0444983 -0.763641 0 0 0 176 132 71
0.00618069 -0.0437964 -0.762306 0 0 0 174 130 59
0.00618535 -0.0430945 -0.76097 0 0 0 171 128 50
0.00619001 -0.0423926 -0.759635 0 0 0 158 115 36
0.00619467 -0.0416907 -0.758299 0 0 0 146 103 24
0.00619344 -0.0415612 -0.756764 0 0 0 148 106 34
0.00615286 -0.0452527 -0.7539 0 0 0 135 92 37
0.00615159 -0.0451289 -0.752375 0 0 0 132 89 46
0.00615031 -0.045006 -0.750852 0 0 0 127 84 49
0.00615099 -0.0446928 -0.749396 0 0 0 133 91 69
0.00615561 -0.0439968 -0.748072 0 0 0 150 109 105
0.00615826 -0.0434926 -0.746683 0 0 0 165 124 132
0.00615893 -0.0431809 -0.74523 0 0 0 172 131 145
0.00616355 -0.0424855 -0.743907 0 0 0 177 136 154
0.00616817 -0.04179 -0.742584 0 0 0 184 146 161
0.00616685 -0.0416722 -0.74107 0 0 0 180 142 157
0.00614971 -0.0430974 -0.739053 0 0 0 169 127 149
0.00615233 -0.0425973 -0.737672 0 0 0 167 124 151
0.00614901 -0.0426768 -0.736104 0 0 0 150 107 135
0.00615162 -0.0421779 -0.734725 0 0 0 151 107 132
0.00615621 -0.041486 -0.733409 0 0 0 154 112 126
0.00616081 -0.040794 -0.732092 0 0 0 151 110 118
0.0061654 -0.040102 -0.730776 0 0 0 147 106 112
0.00617 -0.0394101 -0.729459 0 0 0 148 109 114
0.00617459 -0.0387181 -0.728143 0 0 0 151 112 115
0.00617919 -0.0380261 -0.726826 0 0 0 148 112 114
0.00617184 -0.0385012 -0.725151 0 0 0 145 109 111
0.0061376 -0.0416061 -0.722676 0 0 0 139 103 105
0.00611527 -0.0435489 -0.720569 0 0 0 135 99 103
0.00612182 -0.0426687 -0.719324 0 0 0 136 99 106
0.00612637 -0.0419833 -0.71802 0 0 0 133 96 104
0.00613092 -0.041298 -0.716716 0 0 0 129 92 100
0.00613547 -0.0406127 -0.715413 0 0 0 125 88 96
0.00614002 -0.0399274 -0.714109 0 0 0 126 86 95
0.00614457 -0.039242 -0.712805 0 0 0 129 89 98
0.00614712 -0.0387528 -0.711444 0 0 0 133 91 101
0.00615166 -0.0380676 -0.710141 0 0 0 132 90 100
0.0061462 -0.0383645 -0.708556 0 0 0 127 89 100
0.00614473 -0.03827 -0.707087 0 0 0 125 91 105
0.00612722 -0.0397504 -0.705175 0 0 0 123 91 104
0.00613175 -0.0390686 -0.703878 0 0 0 121 90 98
0.00613627 -0.0383867 -0.702581 0 0 0 122 90 95
0.0061408 -0.0377049 -0.701284 0 0 0 123 91 94
0.00614533 -0.0370231 -0.699987 0 0 0 123 91 92
0.00614985 -0.0363412 -0.698689 0 0 0 123 91 92
0.00615438 -0.0356594 -0.697392 0 0 0 121 89 90
0.00615891 -0.0349776 -0.696095 0 0 0 123 93 95
0.00615538 -0.0350885 -0.694586 0 0 0 130 100 102
0.0061599 -0.0344073 -0.69329 0 0 0 132 103 105
0.00616442 -0.0337262 -0.691994 0 0 0 131 106 102
0.00616188 -0.0337403 -0.690517 0 0 0 134 112 101
0.00616438 -0.0332587 -0.689171 0 0 0 134 115 100
0.0061689 -0.0325784 -0.687876 0 0 0 125 108 88
0.00617241 -0.0319975 -0.686557 0 0 0 112 99 82
0.00616479 -0.0325135 -0.684959 0 0 0 89 80 73
0.00616525 -0.0322334 -0.683567 0 0 0 87 83 71
0.00616166 -0.0323534 -0.682076 0 0 0 88 89 57
0.00616414 -0.0318751 -0.680736 0 0 0 91 97 53
0.0061504 -0.0329977 -0.679003 0 0 0 95 102 58
0.00615286 -0.0325215 -0.677667 0 0 0 97 102 62
0.00614213 -0.0333485 -0.676016 0 0 0 97 98 67
0.00613544 -0.0337768 -0.674467 0 0 0 98 97 66
0.00613992 -0.0331029 -0.673185 0 0 0 98 96 48
0.00614236 -0.0326298 -0.671855 0 0 0 83 80 29
0.0061448 -0.0321572 -0.670526 0 0 0 71 66 24
0.00615436 -0.0309802 -0.669362 0 0 0 52 46 24
0.00616698 -0.0295004 -0.668265 0 0 0 9 1 12
0.00617248 -0.0287247 -0.667005 0 0 0 7 2 25
0.00717176 0.0704363 -0.68812 0 0 0 3 2 16
0.00719925 0.0734184 -0.687175 0 0 0 0 0 7
0.00722472 0.076202 -0.686178 0 0 0 2 3 5
0.00722979 0.0769657 -0.684725 0 0 0 2 2 2
0.00723486 0.0777294 -0.683272 0 0 0 1 1 3
0.00723993 0.0784931 -0.681819 0 0 0 0 0 0
0.007245 0.0792568 -0.680366 0 0 0 0 0 0
0.00725007 0.0800205 -0.678913 0 0 0 1 1 1
0.00725514 0.0807842 -0.67746 0 0 0 3 1 4
0.00726021 0.0815479 -0.676007 0 0 0 6 2 3
0.00726528 0.0823116 -0.674554 0 0 0 8 0 0
0.00727035 0.0830753 -0.673101 0 0 0 15 3 0
0.007259 0.0822078 -0.671313 0 0 0 18 4 0
0.00614446 -0.0278421 -0.644478 0 0 0 175 146 114
0.00614888 -0.0271757 -0.64321 0 0 0 174 138 126
0.00615331 -0.0265094 -0.641942 0 0 0 168 132 134
0.00615773 -0.025843 -0.640674 0 0 0 148 115 122
0.00616216 -0.0251766 -0.639407 0 0 0 147 117 117
0.00170401 0.808271 0.488275 0 0 0 127 100 81
0.00170401 0.808271 0.488275 0 0 0 116 90 65
0.00768931 -0.0441231 -0.763781 0 0 0 170 124 72
0.00769398 -0.0434209 -0.762445 0 0 0 166 121 56
0.00769864 -0.0427186 -0.761109 0 0 0 160 116 45
0.0077033 -0.0420164 -0.759773 0 0 0 152 105 33
0.00770797 -0.0413141 -0.758437 0 0 0 146 99 31
0.00770561 -0.0411842 -0.7569 0 0 0 149 103 43
0.00766343 -0.0443023 -0.754235 0 0 0 141 95 46
0.00766104 -0.0441776 -0.752708 0 0 0 133 88 46
0.00765395 -0.0444367 -0.751052 0 0 0 127 83 44
0.00765623 -0.0439313 -0.749661 0 0 0 134 93 65
0.00765264 -0.0439055 -0.748107 0 0 0 156 113 106
0.00765609 -0.0433054 -0.74675 0 0 0 172 131 139
0.00765953 -0.0427054 -0.745394 0 0 0 179 138 156
0.00766416 -0.0420095 -0.74407 0 0 0 179 140 159
0.00766878 -0.0413136 -0.742746 0 0 0 184 146 159
0.00766987 -0.0409066 -0.741327 0 0 0 176 138 151
0.00766272 -0.0411746 -0.739688 0 0 0 163 124 143
0.00766262 -0.0408657 -0.73824 0 0 0 163 120 147
0.00766723 -0.0401714 -0.736919 0 0 0 141 98 128
0.00766242 -0.04025 -0.735349 0 0 0 142 98 123
0.00766231 -0.0399431 -0.733906 0 0 0 148 104 117
0.00766691 -0.0392497 -0.732587 0 0 0 141 100 106
0.00767151 -0.0385564 -0.731268 0 0 0 145 106 111
0.00767612 -0.037863 -0.729949 0 0 0 144 108 112
0.00768072 -0.0371696 -0.72863 0 0 0 143 106 113
0.00768296 -0.0366706 -0.72725 0 0 0 141 106 112
0.0076852 -0.0361719 -0.725872 0 0 0 139 104 110
0.00762473 -0.0408321 -0.722917 0 0 0 134 97 104
0.0076293 -0.0401439 -0.721607 0 0 0 131 94 101
0.00763387 -0.0394557 -0.720298 0 0 0 132 95 102
0.00763843 -0.0387674 -0.718989 0 0 0 129 92 100
0.00763945 -0.0383722 -0.717592 0 0 0 128 90 101
0.00764402 -0.0376843 -0.716283 0 0 0 129 88 104
0.00764858 -0.0369963 -0.714974 0 0 0 129 88 104
0.00765315 -0.0363084 -0.713666 0 0 0 131 90 104
0.00765772 -0.0356204 -0.712357 0 0 0 133 91 103
0.00765991 -0.0351287 -0.710992 0 0 0 131 90 96
0.0076621 -0.0346373 -0.709627 0 0 0 127 88 93
0.00763336 -0.0367018 -0.707537 0 0 0 126 94 99
0.00761411 -0.0379842 -0.705678 0 0 0 122 91 97
0.00761864 -0.0373008 -0.704378 0 0 0 119 88 94
0.0076208 -0.0368145 -0.703023 0 0 0 118 87 92
0.00762057 -0.0365258 -0.701614 0 0 0 122 90 95
0.00762033 -0.0362378 -0.700206 0 0 0 125 93 98
0.00762486 -0.0355553 -0.698908 0 0 0 128 95 102
0.00762939 -0.0348728 -0.697609 0 0 0 129 96 103
0.00763393 -0.0341902 -0.69631 0 0 0 133 100 107
0.00763846 -0.0335077 -0.695012 0 0 0 134 103 108
0.00764299 -0.0328252 -0.693713 0 0 0 133 104 106
0.00764274 -0.0325396 -0.692311 0 0 0 130 105 101
0.00764248 -0.0322549 -0.690909 0 0 0 131 109 98
0.00764461 -0.0317718 -0.68956 0 0 0 131 112 97
0.00764914 -0.0310902 -0.688263 0 0 0 128 110 90
0.00765367 -0.0304085 -0.686966 0 0 0 120 105 86
0.00765819 -0.0297269 -0.68567 0 0 0 100 90 78
0.00765792 -0.0294443 -0.684272 0 0 0 96 90 74
0.00764565 -0.030161 -0.682627 0 0 0 92 91 63
0.00763576 -0.0306803 -0.681036 0 0 0 91 93 56
0.00762825 -0.0310015 -0.679498 0 0 0 90 95 55
0.00763276 -0.0303234 -0.678208 0 0 0 89 93 56
0.00761562 -0.031449 -0.67648 0 0 0 89 90 59
0.00759605 -0.0327784 -0.674711 0 0 0 90 87 54
0.00759332 -0.0327058 -0.673283 0 0 0 92 88 43
0.00759177 -0.0325338 -0.671881 0 0 0 85 81 36
0.00760106 -0.0314577 -0.670694 0 0 0 83 77 43
0.00760554 -0.0307835 -0.669411 0 0 0 67 59 46
0.00761725 -0.0295049 -0.668268 0 0 0 8 1 17
0.00762294 -0.0287292 -0.667007 0 0 0 3 0 26
0.00861342 0.0543871 -0.684474 0 0 0 0 0 18
0.00883692 0.0734133 -0.687178 0 0 0 0 2 11
0.00889876 0.0789263 -0.686791 0 0 0 1 2 6
0.00890385 0.0796923 -0.685334 0 0 0 2 2 2
0.00890893 0.0804584 -0.683876 0 0 0 1 1 3
0.00891402 0.0812244 -0.682419 0 0 0 1 1 3
0.00891911 0.0819905 -0.680962 0 0 0 1 1 1
0.00892419 0.0827566 -0.679504 0 0 0 1 1 1
0.00892928 0.0835226 -0.678047 0 0 0 3 1 4
0.00893436 0.0842887 -0.676589 0 0 0 5 0 4
0.00893945 0.0850548 -0.675132 0 0 0 8 0 0
0.00892755 0.0843946 -0.673379 0 0 0 12 1 0
0.00893034 0.0849668 -0.671884 0 0 0 15 3 0
0.00757672 -0.0278466 -0.64448 0 0 0 168 141 114
0.00758114 -0.0271802 -0.643213 0 0 0 167 133 124
0.00758557 -0.0265138 -0.641945 0 0 0 166 130 134
0.00758999 -0.0258474 -0.640677 0 0 0 142 109 120
0.00759442 -0.025181 -0.639409 0 0 0 142 111 116
0.00170401 0.808271 0.488275 0 0 0 119 91 77
0.00921765 -0.0427982 -0.764263 0 0 0 149 107 65
0.00922232 -0.0420947 -0.762925 0 0 0 153 112 58
0.00922699 -0.0413912 -0.761586 0 0 0 147 107 45
0.00923166 -0.0406878 -0.760248 0 0 0 149 108 46
0.00923633 -0.0399843 -0.758909 0 0 0 148 106 48
0.00922471 -0.0404257 -0.75717 0 0 0 140 97 44
0.00921307 -0.0408691 -0.755435 0 0 0 142 96 47
0.00920413 -0.0411236 -0.75377 0 0 0 134 89 47
0.00918159 -0.0423364 -0.751779 0 0 0 133 89 50
0.00916175 -0.0433613 -0.74986 0 0 0 142 101 69
0.00915821 -0.0432393 -0.748338 0 0 0 163 121 105
0.00915875 -0.0428304 -0.746915 0 0 0 177 138 133
0.00916065 -0.042326 -0.745526 0 0 0 182 143 148
0.00916664 -0.0415337 -0.744233 0 0 0 181 144 152
0.00917126 -0.0408373 -0.742909 0 0 0 182 147 153
0.00917588 -0.040141 -0.741584 0 0 0 175 140 146
0.00918051 -0.0394447 -0.740259 0 0 0 158 122 132
0.00918513 -0.0387484 -0.738934 0 0 0 156 118 133
0.00918566 -0.0383417 -0.737516 0 0 0 142 101 119
0.00918208 -0.0382254 -0.736005 0 0 0 143 101 115
0.0091867 -0.0375299 -0.734682 0 0 0 144 101 108
0.00917901 -0.0377055 -0.733082 0 0 0 138 98 99
0.00918363 -0.0370107 -0.73176 0 0 0 139 103 107
0.0091855 -0.0365099 -0.730377 0 0 0 136 100 110
0.00919011 -0.0358153 -0.729056 0 0 0 130 94 108
0.00918925 -0.0355094 -0.727614 0 0 0 127 90 108
0.00919386 -0.0348151 -0.726293 0 0 0 128 91 109
0.00916831 -0.0362622 -0.724318 0 0 0 126 90 104
0.00917291 -0.0355699 -0.723001 0 0 0 123 88 94
0.00916927 -0.0354626 -0.721507 0 0 0 126 92 93
0.00917112 -0.0349659 -0.720133 0 0 0 134 98 98
0.00915374 -0.0358372 -0.718351 0 0 0 135 99 101
0.00915833 -0.035147 -0.717038 0 0 0 136 99 106
0.00914092 -0.0360224 -0.715265 0 0 0 137 97 108
0.0091455 -0.0353336 -0.713954 0 0 0 137 96 110
0.00914319 -0.0351349 -0.712502 0 0 0 137 96 112
0.00914639 -0.0345446 -0.711164 0 0 0 136 95 109
0.00914545 -0.0342491 -0.709742 0 0 0 132 95 103
0.00911422 -0.0361166 -0.707707 0 0 0 126 94 95
0.00911326 -0.0358245 -0.706291 0 0 0 123 93 93
0.00911781 -0.0351392 -0.704988 0 0 0 122 90 95
0.00911133 -0.0352423 -0.703464 0 0 0 124 91 102
0.00910484 -0.0353467 -0.701944 0 0 0 130 93 110
0.0091011 -0.0352551 -0.70048 0 0 0 135 97 118
0.00911116 -0.0341765 -0.699287 0 0 0 137 99 122
0.0091157 -0.0334928 -0.697986 0 0 0 138 100 121
0.00912024 -0.032809 -0.696686 0 0 0 141 104 122
0.00912478 -0.0321253 -0.695385 0 0 0 138 104 118
0.00912932 -0.0314415 -0.694084 0 0 0 137 104 113
0.00912002 -0.0317502 -0.692522 0 0 0 135 104 109
0.00912456 -0.0310673 -0.691223 0 0 0 134 106 105
0.00912909 -0.0303844 -0.689924 0 0 0 134 109 105
0.00911839 -0.0307962 -0.688343 0 0 0 134 109 104
0.00912291 -0.0301143 -0.687046 0 0 0 129 109 100
0.00912744 -0.0294323 -0.685748 0 0 0 119 105 92
0.00913197 -0.0287504 -0.684451 0 0 0 110 102 83
0.00911707 -0.0294665 -0.682804 0 0 0 102 96 72
0.00911049 -0.0295854 -0.681311 0 0 0 96 92 65
0.00910806 -0.0294056 -0.679894 0 0 0 90 89 59
0.00910701 -0.0291265 -0.678504 0 0 0 87 86 56
0.00908929 -0.0300505 -0.676823 0 0 0 85 81 54
0.00906042 -0.0317798 -0.674955 0 0 0 81 76 47
0.00905099 -0.032108 -0.67343 0 0 0 84 76 40
0.00904434 -0.0322368 -0.671956 0 0 0 88 79 46
0.00905578 -0.0310599 -0.670791 0 0 0 98 87 65
0.00906165 -0.0302847 -0.669531 0 0 0 84 73 71
0.00906752 -0.0295094 -0.668271 0 0 0 10 0 24
0.00908594 -0.0278262 -0.667218 0 0 0 2 0 26
0.0102171 0.0543821 -0.684477 0 0 0 0 0 17
0.0104746 0.0734083 -0.687181 0 0 0 0 3 12
0.0105606 0.080033 -0.687043 0 0 0 1 2 4
0.0105657 0.0808 -0.685584 0 0 0 1 1 1
0.0105708 0.0815671 -0.684125 0 0 0 1 1 3
0.0105759 0.0823341 -0.682665 0 0 0 1 1 3
0.010581 0.0831011 -0.681206 0 0 0 1 1 1
0.0105861 0.0838681 -0.679747 0 0 0 1 1 1
0.0105912 0.0846352 -0.678288 0 0 0 2 0 5
0.0105879 0.0847921 -0.6767 0 0 0 5 0 6
0.0105929 0.0855586 -0.675241 0 0 0 5 0 5
0.010591 0.0858158 -0.673678 0 0 0 11 0 1
0.0105919 0.0862759 -0.672157 0 0 0 13 0 0
0.0105073 0.0805109 -0.66937 0 0 0 63 44 27
0.00900898 -0.027851 -0.644483 0 0 0 163 134 120
0.00901341 -0.0271846 -0.643215 0 0 0 162 126 128
0.00901783 -0.0265182 -0.641948 0 0 0 157 119 132
0.00902226 -0.0258518 -0.64068 0 0 0 138 104 121
0.00902668 -0.0251854 -0.639412 0 0 0 134 100 114
0.0107296 -0.0428029 -0.764266 0 0 0 150 111 78
0.0107343 -0.0420994 -0.762927 0 0 0 156 119 77
0.010739 -0.0413959 -0.761589 0 0 0 140 104 56
0.0107436 -0.0406924 -0.760251 0 0 0 146 108 61
0.0107483 -0.0399889 -0.758912 0 0 0 153 114 71
0.0107375 -0.0402395 -0.75724 0 0 0 140 98 58
0.0107329 -0.0401099 -0.755704 0 0 0 141 96 57
0.0107345 -0.0395989 -0.754302 0 0 0 139 93 57
0.0107175 -0.0402365 -0.752506 0 0 0 141 98 63
0.0106943 -0.0412593 -0.750583 0 0 0 155 114 84
0.0106714 -0.0422641 -0.748674 0 0 0 172 134 115
0.0106679 -0.0420675 -0.747177 0 0 0 184 146 137
0.010671 -0.0414664 -0.745819 0 0 0 185 150 148
0.0106756 -0.0407694 -0.744493 0 0 0 183 149 150
0.0106803 -0.0400724 -0.743167 0 0 0 178 146 147
0.0106849 -0.0393754 -0.741841 0 0 0 173 141 142
0.0106895 -0.0386784 -0.740515 0 0 0 153 121 126
0.0106942 -0.0379813 -0.739188 0 0 0 152 117 124
0.0106988 -0.0372843 -0.737862 0 0 0 146 108 119
0.010691 -0.0373603 -0.736288 0 0 0 147 107 115
0.0106941 -0.0367607 -0.734932 0 0 0 144 104 105
0.0106925 -0.0364517 -0.733484 0 0 0 141 102 103
0.0106971 -0.0357558 -0.73216 0 0 0 130 98 103
0.010697 -0.0353508 -0.730745 0 0 0 125 94 102
0.0107016 -0.0346552 -0.729422 0 0 0 116 84 97
0.0107063 -0.0339596 -0.728098 0 0 0 112 80 95
0.0107109 -0.0332639 -0.726775 0 0 0 115 83 98
0.010703 -0.0333469 -0.725214 0 0 0 116 83 94
0.0107076 -0.032652 -0.723891 0 0 0 115 83 88
0.0107123 -0.0319571 -0.722569 0 0 0 119 88 86
0.0106857 -0.0332139 -0.720662 0 0 0 130 97 92
0.0106497 -0.0350604 -0.718587 0 0 0 132 99 92
0.0106543 -0.0343695 -0.717272 0 0 0 132 99 94
0.0106495 -0.0342657 -0.715785 0 0 0 130 96 95
0.0106291 -0.0351423 -0.714014 0 0 0 130 93 100
0.0106274 -0.0348454 -0.71259 0 0 0 130 93 101
0.0106273 -0.0344511 -0.711195 0 0 0 130 92 103
0.010624 -0.0342537 -0.709745 0 0 0 129 94 101
0.010613 -0.0345485 -0.708157 0 0 0 125 94 91
0.0106175 -0.0338615 -0.706849 0 0 0 124 95 89
0.0106221 -0.0331744 -0.705542 0 0 0 126 96 98
0.0106204 -0.0328815 -0.704125 0 0 0 132 99 108
0.010603 -0.0335758 -0.702437 0 0 0 140 103 121
0.0106044 -0.0330878 -0.701079 0 0 0 143 105 128
0.010609 -0.0324025 -0.699775 0 0 0 143 105 130
0.0106104 -0.0319149 -0.698418 0 0 0 142 104 127
0.0106118 -0.0314278 -0.697061 0 0 0 141 104 122
0.0106163 -0.0307428 -0.695758 0 0 0 140 104 118
0.0106209 -0.0300578 -0.694454 0 0 0 141 105 115
0.0106223 -0.0295713 -0.693099 0 0 0 140 107 114
0.0106268 -0.0288865 -0.691796 0 0 0 138 107 113
0.0106251 -0.0285993 -0.69039 0 0 0 138 107 112
0.0106297 -0.0279149 -0.689088 0 0 0 139 110 115
0.0106342 -0.0272304 -0.687786 0 0 0 136 110 111
0.0106387 -0.026546 -0.686484 0 0 0 128 110 98
0.0106401 -0.0260611 -0.685131 0 0 0 121 108 91
0.0106132 -0.027374 -0.683331 0 0 0 115 103 89
0.0106051 -0.027491 -0.681834 0 0 0 109 100 85
0.0105891 -0.0281096 -0.680217 0 0 0 101 94 76
0.0105937 -0.0274289 -0.678922 0 0 0 93 86 67
0.010595 -0.0269486 -0.677578 0 0 0 84 76 57
0.0105348 -0.0303802 -0.675295 0 0 0 76 65 45
0.0105141 -0.0313093 -0.673624 0 0 0 80 68 42
0.010498 -0.03194 -0.67203 0 0 0 92 77 56
0.0105073 -0.0309639 -0.670817 0 0 0 105 91 80
0.0105117 -0.0302892 -0.669534 0 0 0 91 79 81
0.010532 -0.0286072 -0.668483 0 0 0 13 1 25
0.0105397 -0.0277299 -0.667244 0 0 0 2 0 22
0.0117149 0.0476165 -0.682942 0 0 0 0 0 12
0.012068 0.0705754 -0.686546 0 0 0 0 2 7
0.0122092 0.0800279 -0.687046 0 0 0 1 1 1
0.0122143 0.0807949 -0.685587 0 0 0 1 1 1
0.012232 0.082372 -0.684306 0 0 0 1 1 3
0.0122371 0.0831397 -0.682845 0 0 0 1 1 3
0.0122422 0.0839074 -0.681385 0 0 0 1 1 1
0.0122473 0.0846751 -0.679924 0 0 0 1 1 3
0.0122524 0.0854428 -0.678464 0 0 0 2 0 5
0.0122543 0.0860072 -0.67696 0 0 0 4 0 6
0.0122499 0.0861641 -0.675372 0 0 0 5 0 8
0.0122375 0.0858107 -0.673681 0 0 0 8 0 3
0.0122378 0.0862708 -0.67216 0 0 0 11 0 0
0.0121412 0.0805059 -0.669373 0 0 0 44 26 16
0.012054 0.0753427 -0.66673 0 0 0 133 110 96
0.0104412 -0.0278554 -0.644486 0 0 0 160 132 121
0.0104457 -0.027189 -0.643218 0 0 0 157 122 126
0.0104501 -0.0265226 -0.64195 0 0 0 143 107 119
0.0104545 -0.0258562 -0.640682 0 0 0 136 102 118
0.0104589 -0.0251899 -0.639415 0 0 0 126 92 108
0.0122416 -0.0428076 -0.764269 0 0 0 159 124 102
0.0122636 -0.0411534 -0.763271 0 0 0 173 139 112
0.0122683 -0.040449 -0.761931 0 0 0 161 127 100
0.012273 -0.0397447 -0.760591 0 0 0 161 125 99
0.0122776 -0.0390403 -0.759251 0 0 0 153 117 95
0.0122823 -0.038336 -0.757911 0 0 0 145 107 88
0.0122731 -0.0383956 -0.756305 0 0 0 137 92 73
0.0122639 -0.0384567 -0.754702 0 0 0 144 97 77
0.0122374 -0.0394757 -0.752772 0 0 0 154 109 86
0.0122108 -0.040498 -0.750848 0 0 0 168 127 105
0.0121707 -0.0422687 -0.748677 0 0 0 181 144 128
0.0121662 -0.0420722 -0.74718 0 0 0 184 147 138
0.0121761 -0.0410871 -0.745951 0 0 0 178 144 142
0.0121946 -0.0396207 -0.744881 0 0 0 174 143 141
0.0122062 -0.0385378 -0.74368 0 0 0 169 139 137
0.0122108 -0.0378394 -0.742352 0 0 0 160 130 128
0.0122155 -0.037141 -0.741023 0 0 0 138 108 108
0.0122201 -0.0364425 -0.739694 0 0 0 144 112 117
0.0122247 -0.0357441 -0.738365 0 0 0 136 103 110
0.0122259 -0.035239 -0.736974 0 0 0 134 99 106
0.0122201 -0.0351211 -0.73546 0 0 0 132 96 100
0.0122038 -0.0355851 -0.733764 0 0 0 125 90 94
0.0122049 -0.0350822 -0.732377 0 0 0 112 81 87
0.0122043 -0.0346767 -0.730961 0 0 0 97 67 75
0.0122072 -0.0340775 -0.729606 0 0 0 82 53 58
0.0122101 -0.0334785 -0.728252 0 0 0 65 36 40
0.0122147 -0.0327824 -0.726927 0 0 0 65 36 40
0.0122054 -0.0328649 -0.725365 0 0 0 63 33 35
0.01221 -0.0321695 -0.724042 0 0 0 61 31 31
0.0122146 -0.0314742 -0.722719 0 0 0 85 56 52
0.0122105 -0.0312668 -0.72125 0 0 0 99 69 61
0.0121801 -0.0325253 -0.719346 0 0 0 91 61 50
0.0121812 -0.0320277 -0.717969 0 0 0 85 56 40
0.0121369 -0.0340745 -0.715846 0 0 0 89 60 44
0.0121309 -0.0339716 -0.71436 0 0 0 95 65 54
0.012111 -0.0346539 -0.712649 0 0 0 94 63 58
0.0121068 -0.0344556 -0.711198 0 0 0 97 65 68
0.0121026 -0.0342582 -0.709747 0 0 0 108 76 79
0.0121002 -0.0339634 -0.708327 0 0 0 117 88 80
0.0121013 -0.0334726 -0.706963 0 0 0 125 97 86
0.0121058 -0.0327851 -0.705655 0 0 0 138 109 103
0.0120964 -0.0328861 -0.704128 0 0 0 142 110 111
0.0120834 -0.0331857 -0.702549 0 0 0 148 113 120
0.0120914 -0.0323024 -0.701298 0 0 0 153 117 129
0.012096 -0.0316164 -0.699993 0 0 0 147 109 122
0.0121005 -0.0309304 -0.698688 0 0 0 144 106 119
0.0121051 -0.0302443 -0.697383 0 0 0 142 104 115
0.0121097 -0.0295583 -0.696078 0 0 0 144 107 115
0.0121107 -0.0290707 -0.69472 0 0 0 148 111 119
0.0121152 -0.0283849 -0.693415 0 0 0 146 111 118
0.0121198 -0.027699 -0.69211 0 0 0 143 107 117
0.0121173 -0.0274109 -0.690702 0 0 0 145 111 125
0.0121219 -0.0267254 -0.689398 0 0 0 147 113 129
0.0121264 -0.0260399 -0.688094 0 0 0 141 110 118
0.012131 -0.0253544 -0.68679 0 0 0 133 108 103
0.0121109 -0.0260656 -0.685134 0 0 0 127 107 98
0.0120907 -0.0267793 -0.683483 0 0 0 126 108 106
0.0120847 -0.0266959 -0.682035 0 0 0 125 106 108
0.0120857 -0.0262134 -0.680687 0 0 0 115 100 97
0.0120902 -0.0255311 -0.679389 0 0 0 107 92 87
0.0120947 -0.0248487 -0.678091 0 0 0 106 88 84
0.0120251 -0.0283788 -0.67578 0 0 0 105 88 80
0.0119696 -0.0311131 -0.673675 0 0 0 111 93 81
0.0119476 -0.0319444 -0.672032 0 0 0 117 97 88
0.0119644 -0.0305661 -0.670914 0 0 0 130 111 107
0.0119795 -0.0292872 -0.669771 0 0 0 101 84 90
0.011984 -0.0286116 -0.668486 0 0 0 24 11 29
0.011992 -0.0277344 -0.667247 0 0 0 9 2 18
0.013306 0.0476116 -0.682945 0 0 0 0 0 2
0.0137004 0.0705704 -0.686549 0 0 0 1 3 0
0.0138577 0.0800228 -0.687049 0 0 0 2 2 0
0.0138628 0.0807899 -0.68559 0 0 0 2 0 1
0.0138892 0.0827718 -0.684398 0 0 0 1 1 3
0.0138943 0.0835399 -0.682937 0 0 0 1 0 5
0.0138994 0.084308 -0.681476 0 0 0 1 1 3
0.0139045 0.085076 -0.680014 0 0 0 1 1 1
0.0139096 0.0858441 -0.678553 0 0 0 2 0 3
0.0139111 0.0864088 -0.677049 0 0 0 5 0 6
0.0138985 0.086159 -0.675375 0 0 0 7 0 10
0.013884 0.0858056 -0.673684 0 0 0 7 0 4
0.0138838 0.0862657 -0.672163 0 0 0 11 0 0
0.0137751 0.0805008 -0.669376 0 0 0 34 15 8
0.0136771 0.0753377 -0.666733 0 0 0 115 93 80
0.0118735 -0.0278598 -0.644488 0 0 0 152 125 116
0.0118779 -0.0271934 -0.643221 0 0 0 140 108 109
0.0118824 -0.0265271 -0.641953 0 0 0 140 105 111
0.0118868 -0.0258607 -0.640685 0 0 0 129 97 102
0.0118912 -0.0251943 -0.639417 0 0 0 117 84 95
0.0137536 -0.0428122 -0.764271 0 0 0 163 127 111
0.0137775 -0.0411581 -0.763274 0 0 0 179 146 129
0.0137898 -0.0400731 -0.762069 0 0 0 176 142 130
0.0137945 -0.0393684 -0.760729 0 0 0 174 140 131
0.0137992 -0.0386637 -0.759388 0 0 0 167 132 130
0.0138039 -0.037959 -0.758047 0 0 0 162 122 123
0.0138085 -0.0372543 -0.756707 0 0 0 146 100 103
0.0138017 -0.0371231 -0.755168 0 0 0 158 110 108
0.0137948 -0.0369931 -0.75363 0 0 0 168 124 115
0.013738 -0.0393535 -0.751244 0 0 0 180 138 126
0.0136699 -0.0422733 -0.748679 0 0 0 187 148 141
0.0136722 -0.0416931 -0.747313 0 0 0 185 150 148
0.0136826 -0.0407076 -0.746082 0 0 0 178 143 147
0.0137065 -0.0390488 -0.745076 0 0 0 170 139 144
0.0137574 -0.0360416 -0.744513 0 0 0 159 131 130
0.013762 -0.0353409 -0.74318 0 0 0 158 130 129
0.0137667 -0.0346402 -0.741847 0 0 0 141 112 114
0.0137713 -0.0339395 -0.740514 0 0 0 140 109 115
0.013776 -0.0332388 -0.739181 0 0 0 130 98 109
0.0137421 -0.0344706 -0.737226 0 0 0 129 97 110
0.0137351 -0.0343519 -0.735711 0 0 0 123 90 99
0.0137089 -0.0352025 -0.73389 0 0 0 105 74 82
0.0137058 -0.034893 -0.732441 0 0 0 85 57 69
0.0137046 -0.0344873 -0.731025 0 0 0 71 43 55
0.0137092 -0.0337909 -0.7297 0 0 0 65 38 43
0.0137139 -0.0330945 -0.728375 0 0 0 60 34 37
0.0137185 -0.0323981 -0.72705 0 0 0 62 36 37
0.0137212 -0.031799 -0.725695 0 0 0 63 34 36
0.0137258 -0.0311027 -0.72437 0 0 0 51 22 26
0.0137304 -0.0304063 -0.723046 0 0 0 55 26 28
0.013735 -0.02971 -0.721721 0 0 0 47 19 16
0.0137048 -0.0307718 -0.719873 0 0 0 46 19 12
0.0137017 -0.030468 -0.718435 0 0 0 43 17 4
0.0136559 -0.0323177 -0.716366 0 0 0 48 22 7
0.0136295 -0.0331926 -0.714592 0 0 0 66 40 27
0.0136264 -0.0328941 -0.713164 0 0 0 81 54 45
0.0136154 -0.0329885 -0.711624 0 0 0 85 57 56
0.0136162 -0.0324953 -0.710256 0 0 0 85 57 56
0.0135897 -0.0333782 -0.708497 0 0 0 96 72 60
0.0135943 -0.0326901 -0.707188 0 0 0 113 90 76
0.0135988 -0.032002 -0.705879 0 0 0 136 109 98
0.0136034 -0.0313139 -0.70457 0 0 0 145 117 106
0.0135924 -0.0314149 -0.703043 0 0 0 147 117 109
0.013597 -0.0307274 -0.701735 0 0 0 145 112 107
0.0136016 -0.03004 -0.700427 0 0 0 139 106 101
0.0136022 -0.0295504 -0.699066 0 0 0 144 109 105
0.0135796 -0.0302489 -0.697386 0 0 0 146 108 105
0.0135841 -0.0295629 -0.696081 0 0 0 146 108 107
0.0135887 -0.0288768 -0.694775 0 0 0 147 108 109
0.0135932 -0.0281908 -0.69347 0 0 0 142 106 110
0.0135978 -0.0275048 -0.692165 0 0 0 140 103 111
0.0135907 -0.0274154 -0.690705 0 0 0 144 108 120
0.0135952 -0.0267299 -0.689401 0 0 0 145 108 125
0.0135998 -0.0260444 -0.688097 0 0 0 140 104 114
0.0136043 -0.0253589 -0.686793 0 0 0 134 105 99
0.0135816 -0.0260702 -0.685137 0 0 0 128 103 96
0.0135822 -0.0255856 -0.683785 0 0 0 127 102 108
0.0135633 -0.0261008 -0.682186 0 0 0 126 102 115
0.0135601 -0.0258179 -0.680788 0 0 0 119 98 105
0.0135646 -0.0251351 -0.67949 0 0 0 114 93 98
0.0135652 -0.0246529 -0.678142 0 0 0 114 92 95
0.0135248 -0.0262772 -0.676289 0 0 0 113 91 93
0.0134766 -0.0283069 -0.674348 0 0 0 120 96 96
0.0134616 -0.0286334 -0.67282 0 0 0 125 100 103
0.0134778 -0.0273528 -0.671673 0 0 0 131 108 114
0.0134823 -0.0266749 -0.670383 0 0 0 108 88 99
0.0134868 -0.0259971 -0.669094 0 0 0 37 23 40
0.0134913 -0.0253193 -0.667804 0 0 0 14 6 19
0.0139694 -0.000222407 -0.672069 0 0 0 4 3 1
0.0149667 0.0516797 -0.682291 0 0 0 1 2 0
0.0155063 0.0800177 -0.687052 0 0 0 3 2 0
0.0155114 0.0807848 -0.685593 0 0 0 2 0 1
0.01554 0.0827667 -0.684401 0 0 0 1 1 3
0.0155451 0.0835348 -0.68294 0 0 0 1 0 5
0.0155502 0.0843029 -0.681479 0 0 0 1 1 1
0.0155553 0.085071 -0.680018 0 0 0 1 1 1
0.0155604 0.085839 -0.678556 0 0 0 1 1 1
0.0155655 0.0866071 -0.677095 0 0 0 3 1 4
0.0155627 0.0869681 -0.675549 0 0 0 6 0 7
0.0155403 0.0863098 -0.673792 0 0 0 8 0 5
0.0155297 0.0862606 -0.672166 0 0 0 12 0 0
0.015409 0.0804958 -0.669379 0 0 0 34 15 8
0.0153001 0.0753327 -0.666736 0 0 0 107 85 71
0.0152656 -0.0428169 -0.764274 0 0 0 151 114 98
0.0152913 -0.0411627 -0.763277 0 0 0 176 138 129
0.0153044 -0.0400778 -0.762072 0 0 0 184 144 144
0.0153555 -0.0372781 -0.761474 0 0 0 183 142 150
0.0153602 -0.0365714 -0.76013 0 0 0 174 131 150
0.0153649 -0.0358648 -0.758785 0 0 0 168 124 149
0.0153695 -0.0351582 -0.757441 0 0 0 157 109 135
0.0153742 -0.0344516 -0.756097 0 0 0 170 123 143
0.0153789 -0.0337449 -0.754752 0 0 0 181 136 141
0.0153499 -0.0345704 -0.752884 0 0 0 185 143 144
0.0153102 -0.0358779 -0.750858 0 0 0 188 149 154
0.0152302 -0.0390224 -0.748219 0 0 0 185 147 158
0.0151996 -0.0399227 -0.74635 0 0 0 176 139 157
0.0152841 -0.0355936 -0.746234 0 0 0 167 133 150
0.0152887 -0.0348919 -0.744899 0 0 0 147 115 126
0.0152934 -0.0341902 -0.743564 0 0 0 147 117 125
0.015298 -0.0334884 -0.742229 0 0 0 133 103 113
0.0153027 -0.0327867 -0.740894 0 0 0 133 102 117
0.0153074 -0.0320849 -0.739559 0 0 0 124 92 115
0.0152909 -0.0323495 -0.737913 0 0 0 117 85 108
0.0152828 -0.0322289 -0.736394 0 0 0 93 62 78
0.0152705 -0.0323029 -0.734815 0 0 0 67 39 53
0.0152413 -0.0331536 -0.732995 0 0 0 57 30 47
0.015212 -0.0340071 -0.73118 0 0 0 43 16 33
0.0152082 -0.0336985 -0.729733 0 0 0 39 13 26
0.015217 -0.0328076 -0.728468 0 0 0 38 12 23
0.0152216 -0.032111 -0.727142 0 0 0 41 15 24
0.0152263 -0.0314143 -0.725817 0 0 0 46 18 30
0.0152309 -0.0307176 -0.724492 0 0 0 36 8 22
0.0152355 -0.0300209 -0.723166 0 0 0 27 0 14
0.0152359 -0.0295195 -0.721782 0 0 0 27 0 14
0.0152214 -0.029702 -0.720195 0 0 0 33 5 19
0.0152197 -0.0292995 -0.718785 0 0 0 32 5 14
0.0151733 -0.0309524 -0.716772 0 0 0 26 0 6
0.0151481 -0.0316303 -0.715052 0 0 0 28 3 6
0.01514 -0.0315262 -0.713565 0 0 0 33 9 9
0.0151106 -0.0324045 -0.711797 0 0 0 33 9 9
0.0151151 -0.0317142 -0.710484 0 0 0 31 7 5
0.0151027 -0.0318103 -0.708947 0 0 0 41 18 10
0.0150903 -0.0319077 -0.707413 0 0 0 51 29 16
0.0150906 -0.0314159 -0.706047 0 0 0 69 46 28
0.0150951 -0.0307272 -0.704737 0 0 0 86 64 41
0.0150891 -0.0305317 -0.703291 0 0 0 108 82 55
0.0150936 -0.0298435 -0.701981 0 0 0 117 90 61
0.0150982 -0.0291553 -0.700672 0 0 0 123 93 65
0.0151028 -0.0284671 -0.699363 0 0 0 143 111 86
0.0150882 -0.0286697 -0.697814 0 0 0 150 115 95
0.0150586 -0.0295674 -0.696083 0 0 0 151 115 99
0.0150632 -0.0288814 -0.694778 0 0 0 152 115 106
0.0150677 -0.0281954 -0.693473 0 0 0 148 110 107
0.0150723 -0.0275094 -0.692168 0 0 0 145 106 109
0.015064 -0.02742 -0.690708 0 0 0 147 107 115
0.0150686 -0.0267345 -0.689404 0 0 0 147 107 116
0.0150731 -0.026049 -0.6881 0 0 0 139 103 107
0.0150777 -0.0253635 -0.686795 0 0 0 133 101 90
0.0150523 -0.0260747 -0.68514 0 0 0 127 99 88
0.0150568 -0.0253904 -0.683838 0 0 0 126 97 102
0.0150443 -0.0255057 -0.682338 0 0 0 125 97 111
0.0150445 -0.0250222 -0.680988 0 0 0 122 96 107
0.0150448 -0.024539 -0.679639 0 0 0 120 94 103
0.0150322 -0.0246574 -0.678145 0 0 0 121 94 103
0.0150325 -0.0241754 -0.676798 0 0 0 122 94 106
0.0150241 -0.0240953 -0.675356 0 0 0 124 93 108
0.0150222 -0.0237149 -0.673988 0 0 0 129 98 113
0.0150268 -0.0230333 -0.672691 0 0 0 127 101 114
0.0150313 -0.0223517 -0.671394 0 0 0 112 89 105
0.0150101 -0.022879 -0.669818 0 0 0 53 36 54
0.0149782 -0.0239124 -0.668131 0 0 0 18 7 21
0.0150513 -0.0200043 -0.667573 0 0 0 5 3 4
0.0162165 0.0353141 -0.678603 0 0 0 0 1 0
0.0171548 0.0800126 -0.687055 0 0 0 3 2 0
0.0171599 0.0807797 -0.685596 0 0 0 2 0 3
0.0172122 0.0837742 -0.684627 0 0 0 1 0 5
0.0172174 0.0845432 -0.683164 0 0 0 1 0 5
0.0172225 0.0853121 -0.681701 0 0 0 0 2 1
0.0172276 0.0860811 -0.680239 0 0 0 1 2 0
0.0172327 0.08685 -0.678776 0 0 0 1 2 0
0.0172163 0.086602 -0.677098 0 0 0 3 2 0
0.0172128 0.086963 -0.675552 0 0 0 5 0 1
0.0171878 0.0863048 -0.673795 0 0 0 9 0 0
0.0171756 0.0862556 -0.67217 0 0 0 14 1 0
0.017043 0.0804907 -0.669382 0 0 0 31 15 0
0.0169231 0.0753277 -0.666739 0 0 0 93 75 51
0.0168685 0.07325 -0.664735 0 0 0 125 104 77
0.0168642 0.0735643 -0.663216 0 0 0 125 99 76
0.00170401 0.808271 0.488275 0 0 0 100 67 62
0.00170401 0.808271 0.488275 0 0 0 84 51 60
0.0167776 -0.0428216 -0.764277 0 0 0 134 96 75
0.0168052 -0.0411674 -0.763279 0 0 0 161 122 107
0.0168191 -0.0400825 -0.762075 0 0 0 181 140 136
0.0168834 -0.0369018 -0.761612 0 0 0 181 138 145
0.0168881 -0.0361948 -0.760267 0 0 0 171 126 146
0.0168928 -0.0354878 -0.758922 0 0 0 165 119 145
0.0169158 -0.034017 -0.757843 0 0 0 161 115 144
0.0169389 -0.0325446 -0.756761 0 0 0 174 128 154
0.0169528 -0.0314536 -0.755545 0 0 0 182 138 151
0.0169575 -0.0307449 -0.754197 0 0 0 182 141 149
0.0169622 -0.0300362 -0.752848 0 0 0 183 143 151
0.0169669 -0.0293275 -0.7515 0 0 0 181 143 154
0.0169716 -0.0286188 -0.750152 0 0 0 170 133 151
0.0168912 -0.0314659 -0.747616 0 0 0 159 124 144
0.0168706 -0.0318185 -0.745923 0 0 0 156 123 140
0.0168615 -0.0316916 -0.744392 0 0 0 148 117 132
0.0168385 -0.0321441 -0.742674 0 0 0 128 98 110
0.0168248 -0.0322127 -0.741085 0 0 0 129 101 115
0.0168156 -0.0320896 -0.739561 0 0 0 126 98 113
0.0167972 -0.0323542 -0.737915 0 0 0 104 75 93
0.0167927 -0.0320401 -0.736458 0 0 0 61 34 49
0.0167927 -0.0315332 -0.735064 0 0 0 42 16 29
0.0167789 -0.0316079 -0.733487 0 0 0 38 12 25
0.016719 -0.0336238 -0.731304 0 0 0 37 11 24
0.0167236 -0.0329266 -0.729978 0 0 0 39 13 24
0.0167144 -0.0328123 -0.728471 0 0 0 43 17 28
0.0167421 -0.0311431 -0.727445 0 0 0 48 22 33
0.0167467 -0.0304456 -0.726117 0 0 0 49 23 34
0.0167513 -0.029748 -0.72479 0 0 0 38 11 20
0.016756 -0.0290505 -0.723463 0 0 0 27 0 9
0.0167606 -0.0283529 -0.722136 0 0 0 27 1 12
0.0167468 -0.0284368 -0.720576 0 0 0 25 0 10
0.0167283 -0.0287177 -0.718961 0 0 0 23 0 8
0.0167144 -0.0288044 -0.717407 0 0 0 20 0 5
0.0166774 -0.029872 -0.71557 0 0 0 20 0 5
0.0166588 -0.0301585 -0.713966 0 0 0 18 0 2
0.0166311 -0.0308392 -0.712252 0 0 0 17 0 0
0.0166264 -0.0305405 -0.710823 0 0 0 18 0 0
0.0165986 -0.0312252 -0.709117 0 0 0 22 2 1
0.0166031 -0.0305352 -0.707805 0 0 0 22 3 0
0.016573 -0.0313219 -0.706078 0 0 0 22 4 0
0.0165776 -0.0306332 -0.704767 0 0 0 24 3 0
0.0165705 -0.0304377 -0.703321 0 0 0 35 14 0
0.0165751 -0.0297494 -0.702011 0 0 0 55 30 0
0.0165797 -0.0290611 -0.700702 0 0 0 90 64 31
0.0165843 -0.0283728 -0.699392 0 0 0 141 112 82
0.0165865 -0.0277835 -0.698056 0 0 0 149 117 94
0.0165331 -0.029572 -0.696086 0 0 0 156 120 104
0.0165376 -0.028886 -0.694781 0 0 0 157 120 111
0.0165422 -0.0281999 -0.693476 0 0 0 151 113 110
0.0165467 -0.0275139 -0.692171 0 0 0 144 105 106
0.0165373 -0.0274246 -0.690711 0 0 0 142 103 108
0.0165419 -0.0267391 -0.689407 0 0 0 140 101 106
0.0165465 -0.0260536 -0.688102 0 0 0 137 99 98
0.016551 -0.025368 -0.686798 0 0 0 131 98 81
0.016523 -0.0260793 -0.685142 0 0 0 126 94 81
0.0165276 -0.025395 -0.683841 0 0 0 123 91 96
0.0165321 -0.0247107 -0.682539 0 0 0 124 92 105
0.0165366 -0.0240264 -0.681237 0 0 0 122 92 102
0.0165412 -0.0233421 -0.679935 0 0 0 122 92 100
0.0165457 -0.0226578 -0.678633 0 0 0 124 94 104
0.0165037 -0.0239794 -0.676849 0 0 0 125 93 108
0.0165082 -0.0232969 -0.675551 0 0 0 125 92 111
0.0165128 -0.0226143 -0.674252 0 0 0 130 98 119
0.0165173 -0.0219318 -0.672954 0 0 0 124 95 115
0.0165218 -0.0212493 -0.671655 0 0 0 115 90 109
0.0165264 -0.0205667 -0.670357 0 0 0 70 53 72
0.0165262 -0.0200858 -0.669012 0 0 0 23 12 28
0.0165308 -0.0194034 -0.667714 0 0 0 6 3 10
0.0170509 0.00359804 -0.671451 0 0 0 0 0 2
0.018787 0.0792999 -0.6869 0 0 0 3 1 2
0.0187921 0.0800664 -0.685442 0 0 0 2 0 3
0.0188976 0.0851867 -0.684942 0 0 0 1 0 5
0.0189027 0.0859568 -0.683477 0 0 0 1 0 5
0.0189078 0.086727 -0.682012 0 0 0 0 2 0
0.018913 0.0874972 -0.680547 0 0 0 0 3 0
0.0189181 0.0882673 -0.679081 0 0 0 1 2 0
0.0188998 0.0880205 -0.677402 0 0 0 3 2 0
0.0188769 0.0875686 -0.675683 0 0 0 3 0 0
0.0188609 0.08742 -0.674031 0 0 0 7 0 0
0.0187596 0.0835487 -0.671617 0 0 0 11 0 0
0.0185505 0.0749756 -0.668262 0 0 0 29 13 0
0.0185462 0.0753226 -0.666742 0 0 0 81 64 38
0.0184863 0.073245 -0.664738 0 0 0 111 92 59
0.0184813 0.0735593 -0.663219 0 0 0 119 96 64
0.0184863 0.0743116 -0.661788 0 0 0 115 89 62
0.0185883 0.0793094 -0.661184 0 0 0 95 66 48
0.0185933 0.0800654 -0.659746 0 0 0 87 54 45
0.0185984 0.0808214 -0.658307 0 0 0 81 49 50
0.0186034 0.0815774 -0.656869 0 0 0 81 49 54
0.0186084 0.0823333 -0.655431 0 0 0 76 45 51
0.0183191 -0.0411721 -0.763282 0 0 0 144 105 76
0.0183337 -0.0400872 -0.762078 0 0 0 174 133 113
0.0184227 -0.0361447 -0.761885 0 0 0 177 135 123
0.0184274 -0.035437 -0.760538 0 0 0 167 123 122
0.0184321 -0.0347294 -0.759192 0 0 0 162 117 124
0.0184716 -0.0326848 -0.758311 0 0 0 166 119 135
0.0184863 -0.0315935 -0.757095 0 0 0 175 131 148
0.0184984 -0.0305974 -0.755844 0 0 0 182 138 151
0.0185031 -0.0298879 -0.754494 0 0 0 180 139 147
0.0185078 -0.0291784 -0.753144 0 0 0 181 140 144
0.0185126 -0.0284689 -0.751795 0 0 0 177 138 139
0.0185173 -0.0277593 -0.750445 0 0 0 164 125 130
0.018517 -0.027242 -0.749031 0 0 0 150 112 125
0.0184894 -0.0277832 -0.747266 0 0 0 138 100 121
0.0184343 -0.0293856 -0.745157 0 0 0 142 107 127
0.0183743 -0.031185 -0.742992 0 0 0 122 92 104
0.0183391 -0.0320245 -0.741151 0 0 0 103 77 80
0.0183238 -0.0320943 -0.739564 0 0 0 78 53 49
0.0183185 -0.031779 -0.738105 0 0 0 46 22 20
0.0182983 -0.0320448 -0.736461 0 0 0 17 0 0
0.0183029 -0.0313443 -0.735128 0 0 0 31 9 12
0.0182826 -0.0316126 -0.73349 0 0 0 40 16 12
0.0182224 -0.0334345 -0.731368 0 0 0 46 21 16
0.0182221 -0.0329311 -0.72998 0 0 0 42 16 17
0.0182367 -0.0318454 -0.728774 0 0 0 47 20 25
0.0182763 -0.0297864 -0.727866 0 0 0 64 37 42
0.0182809 -0.0290876 -0.726537 0 0 0 68 42 43
0.0183105 -0.0274148 -0.725503 0 0 0 64 39 32
0.0183151 -0.0267152 -0.724172 0 0 0 62 39 25
0.0183198 -0.0260155 -0.722841 0 0 0 56 35 18
0.0183244 -0.0253159 -0.72151 0 0 0 59 38 21
0.0183291 -0.0246163 -0.720179 0 0 0 58 38 27
0.0182762 -0.026167 -0.718187 0 0 0 49 30 24
0.0181959 -0.0287993 -0.715887 0 0 0 36 16 18
0.0181705 -0.0292809 -0.714224 0 0 0 26 7 13
0.0181425 -0.0298627 -0.712537 0 0 0 26 7 13
0.0181321 -0.0297594 -0.711051 0 0 0 26 9 17
0.0180817 -0.0312298 -0.70912 0 0 0 17 1 12
0.0180862 -0.0305397 -0.707807 0 0 0 14 0 8
0.0180908 -0.0298497 -0.706495 0 0 0 16 0 3
0.0180804 -0.0297509 -0.705017 0 0 0 19 1 0
0.0180724 -0.0295545 -0.703569 0 0 0 23 3 0
0.0180695 -0.0291616 -0.702177 0 0 0 26 3 0
0.0180741 -0.0284728 -0.700866 0 0 0 40 14 0
0.0180786 -0.027784 -0.699556 0 0 0 74 47 30
0.0180657 -0.027788 -0.698059 0 0 0 118 86 75
0.0180075 -0.0295765 -0.696089 0 0 0 131 96 90
0.0180121 -0.0288905 -0.694784 0 0 0 139 104 102
0.0180167 -0.0282045 -0.693478 0 0 0 139 100 103
0.0180212 -0.0275185 -0.692173 0 0 0 136 97 100
0.0180107 -0.0274291 -0.690713 0 0 0 134 95 100
0.0180152 -0.0267436 -0.689409 0 0 0 133 94 99
0.0180198 -0.0260581 -0.688105 0 0 0 133 95 92
0.0180244 -0.0253726 -0.686801 0 0 0 129 94 75
0.0179988 -0.0258843 -0.685195 0 0 0 124 91 74
0.0180033 -0.0251998 -0.683893 0 0 0 123 88 92
0.0180078 -0.0245154 -0.682591 0 0 0 123 90 101
0.0180124 -0.0238309 -0.681289 0 0 0 122 91 96
0.0180169 -0.0231465 -0.679987 0 0 0 123 92 97
0.0180164 -0.0226624 -0.678636 0 0 0 126 95 101
0.0179757 -0.0237834 -0.6769 0 0 0 127 93 107
0.0179802 -0.0231007 -0.675601 0 0 0 130 95 117
0.0179848 -0.022418 -0.674302 0 0 0 134 100 125
0.0179893 -0.0217352 -0.673004 0 0 0 128 96 119
0.0179938 -0.0210525 -0.671705 0 0 0 121 96 117
0.0179933 -0.0205713 -0.670359 0 0 0 89 71 93
0.0180029 -0.019687 -0.669107 0 0 0 33 21 41
0.0180074 -0.0190043 -0.667808 0 0 0 9 5 22
0.0182892 -0.00721269 -0.669016 0 0 0 3 1 12
0.0202755 0.0729269 -0.685478 0 0 0 3 1 6
0.0205503 0.0845125 -0.686433 0 0 0 2 0 3
0.0205882 0.0865989 -0.685257 0 0 0 1 0 5
0.0205934 0.0873703 -0.68379 0 0 0 1 0 5
0.0205985 0.0881417 -0.682322 0 0 0 0 2 0
0.0206036 0.0889131 -0.680855 0 0 0 0 3 0
0.0206087 0.0896845 -0.679387 0 0 0 1 2 0
0.0205734 0.0888289 -0.677576 0 0 0 3 2 0
0.0205482 0.0883777 -0.675856 0 0 0 3 0 0
0.0205104 0.0874149 -0.674034 0 0 0 6 0 0
0.0202777 0.0785877 -0.670601 0 0 0 10 0 0
0.0201555 0.0742126 -0.668111 0 0 0 23 9 0
0.0201461 0.0743839 -0.666557 0 0 0 68 52 27
0.0201042 0.07324 -0.664741 0 0 0 99 80 48
0.0200983 0.0735543 -0.663222 0 0 0 116 93 61
0.0201033 0.0743066 -0.661791 0 0 0 109 83 56
0.0202131 0.0793044 -0.661187 0 0 0 83 54 40
0.0203748 0.0864094 -0.660974 0 0 0 77 44 37
0.0203968 0.0878551 -0.659656 0 0 0 80 47 42
0.0204018 0.0886171 -0.658207 0 0 0 82 51 46
0.0204069 0.089379 -0.656757 0 0 0 78 49 41
0.0204119 0.090141 -0.655308 0 0 0 80 51 47
0.020417 0.090903 -0.653858 0 0 0 80 52 51
0.0198483 -0.0400918 -0.762081 0 0 0 167 125 101
0.0199598 -0.0355781 -0.76209 0 0 0 174 131 115
0.0199645 -0.0348699 -0.760743 0 0 0 167 122 117
0.0199852 -0.0335893 -0.759596 0 0 0 164 120 121
0.0200059 -0.0323076 -0.758447 0 0 0 168 125 132
0.0200427 -0.0304513 -0.757495 0 0 0 179 136 145
0.0200474 -0.029741 -0.756143 0 0 0 183 141 151
0.0200521 -0.0290307 -0.754792 0 0 0 182 141 147
0.0200568 -0.0283204 -0.753441 0 0 0 180 140 140
0.0200616 -0.0276101 -0.752089 0 0 0 172 132 130
0.0200556 -0.027284 -0.750609 0 0 0 156 115 119
0.0200603 -0.026574 -0.749258 0 0 0 141 101 112
0.0200463 -0.0265375 -0.747684 0 0 0 138 98 122
0.0199787 -0.0284276 -0.745477 0 0 0 128 90 115
0.0198977 -0.0308042 -0.743122 0 0 0 95 63 76
0.0198595 -0.0316433 -0.741279 0 0 0 66 38 37
0.0198589 -0.0311336 -0.73988 0 0 0 42 18 6
0.0198367 -0.0313972 -0.738232 0 0 0 27 8 0
0.019836 -0.0308889 -0.736835 0 0 0 14 0 0
0.0198407 -0.0301873 -0.7355 0 0 0 26 5 4
0.0198453 -0.0294858 -0.734166 0 0 0 58 34 22
0.019791 -0.0309177 -0.732162 0 0 0 59 36 22
0.0197366 -0.0323534 -0.730165 0 0 0 46 21 16
