ply
format ascii 1.0
element vertex 1019
property float x
property float y
property float z
property float nx
property float ny
property float nz
property uchar red
property uchar green
property uchar blue
end_header
0.053216 0.00373863 -0.692862 0 0 0 107 79 75
0.0532477 0.00443149 -0.691502 0 0 0 110 80 80
0.0532794 0.00512435 -0.690141 0 0 0 100 75 70
0.0531518 0.00381664 -0.688306 0 0 0 92 79 62
0.0531834 0.00450779 -0.686949 0 0 0 76 67 50
0.0532151 0.00519894 -0.685592 0 0 0 47 34 26
0.0532467 0.00589009 -0.684235 0 0 0 41 25 25
0.052925 0.00330342 -0.676104 0 0 0 11 0 15
0.0527963 0.00197364 -0.674312 0 0 0 34 14 25
0.0529878 0.00467551 -0.67341 0 0 0 75 48 41
0.052859 0.00334233 -0.671625 0 0 0 79 50 32
0.0530506 0.00604759 -0.670716 0 0 0 78 54 30
0.053082 0.00673364 -0.669369 0 0 0 71 50 29
0.0531134 0.00741968 -0.668022 0 0 0 71 48 42
0.0533054 0.0101318 -0.6671 0 0 0 45 26 28
0.0533369 0.0108196 -0.66575 0 0 0 11 2 7
0.0533684 0.0115073 -0.664399 0 0 0 4 1 8
0.055983 0.00658443 -0.755478 0 0 0 228 186 196
0.055856 0.00537298 -0.753454 0 0 0 226 183 190
0.0557288 0.00415819 -0.751436 0 0 0 227 184 191
0.0557616 0.00487402 -0.750031 0 0 0 230 186 201
0.0557944 0.00558985 -0.748625 0 0 0 226 183 213
0.0558272 0.00630569 -0.747219 0 0 0 216 176 210
0.0556996 0.00508233 -0.745218 0 0 0 205 171 196
0.0555719 0.00385562 -0.743224 0 0 0 195 166 186
0.0551231 -0.00125969 -0.740059 0 0 0 180 157 173
0.054995 -0.00249662 -0.738085 0 0 0 156 137 156
0.0550273 -0.001791 -0.736699 0 0 0 142 118 150
0.0550596 -0.00108538 -0.735314 0 0 0 130 105 144
0.0550919 -0.000379766 -0.733928 0 0 0 113 89 125
0.0551242 0.000325852 -0.732543 0 0 0 112 87 116
0.0551565 0.00103148 -0.731157 0 0 0 107 84 100
0.0554473 0.00738205 -0.718688 0 0 0 122 88 76
0.0554796 0.00808766 -0.717303 0 0 0 133 102 82
0.0555119 0.00879328 -0.715917 0 0 0 124 94 84
0.0553823 0.00752572 -0.714003 0 0 0 132 98 112
0.0549287 0.00230486 -0.711045 0 0 0 120 85 109
0.0544746 -0.00292615 -0.708107 0 0 0 114 81 100
0.0545064 -0.00223245 -0.706745 0 0 0 113 81 96
0.0550247 0.00440129 -0.706929 0 0 0 117 87 97
0.0548944 0.0031184 -0.705045 0 0 0 114 84 92
0.054764 0.00183205 -0.703167 0 0 0 105 78 85
0.0547958 0.00252747 -0.701802 0 0 0 107 80 87
0.0548277 0.00322286 -0.700436 0 0 0 104 79 85
0.0550221 0.00590684 -0.69957 0 0 0 101 75 88
0.0548914 0.00461368 -0.697706 0 0 0 101 73 95
0.0547605 0.00331716 -0.695848 0 0 0 106 76 100
0.0547922 0.00401088 -0.694486 0 0 0 106 78 93
0.0547425 0.00370691 -0.692882 0 0 0 103 77 86
0.0547743 0.00439977 -0.691521 0 0 0 95 70 74
0.054806 0.00509263 -0.690161 0 0 0 101 82 78
0.0548377 0.00578547 -0.6888 0 0 0 96 89 73
0.0547062 0.00447615 -0.686968 0 0 0 71 65 49
0.0547379 0.0051673 -0.685611 0 0 0 28 19 12
0.0547695 0.00585845 -0.684254 0 0 0 19 7 7
0.0543041 0.0019423 -0.674331 0 0 0 32 9 25
0.0544993 0.0046441 -0.673429 0 0 0 75 45 45
0.0545308 0.00533015 -0.672082 0 0 0 79 49 38
0.0547262 0.00803708 -0.67117 0 0 0 80 54 37
0.0547577 0.00872483 -0.66982 0 0 0 80 57 43
0.0547892 0.00941259 -0.66847 0 0 0 82 58 58
0.0548207 0.0101003 -0.667119 0 0 0 54 33 42
0.0548522 0.0107881 -0.665769 0 0 0 9 0 8
0.0548837 0.0114758 -0.664418 0 0 0 10 0 13
0.0575677 0.0065515 -0.755498 0 0 0 227 181 191
0.0576006 0.00727074 -0.754086 0 0 0 226 179 185
0.0574698 0.00605766 -0.752065 0 0 0 231 182 186
0.0575026 0.00677519 -0.750656 0 0 0 232 185 195
0.0575355 0.00749274 -0.749247 0 0 0 230 182 208
0.0575683 0.00821026 -0.747838 0 0 0 223 178 207
0.0574371 0.00698874 -0.745834 0 0 0 217 178 197
0.0573058 0.00576376 -0.743836 0 0 0 209 177 192
0.0571742 0.00453543 -0.741845 0 0 0 195 171 185
0.0573712 0.00719201 -0.741032 0 0 0 170 148 169
0.0572395 0.00596028 -0.739048 0 0 0 156 132 166
0.0571076 0.00472508 -0.73707 0 0 0 153 128 168
0.0571402 0.00543582 -0.735674 0 0 0 139 114 154
0.0571727 0.00614653 -0.734279 0 0 0 129 105 139
0.0571673 0.00931775 -0.719246 0 0 0 107 77 67
0.0571997 0.0100251 -0.717858 0 0 0 122 94 70
0.0570666 0.00876098 -0.715937 0 0 0 127 98 82
0.0570989 0.00946659 -0.714551 0 0 0 136 102 116
0.0569655 0.00819741 -0.712641 0 0 0 127 94 115
0.056003 -0.00295791 -0.708126 0 0 0 134 103 111
0.0560348 -0.00226421 -0.706764 0 0 0 123 95 94
0.0565644 0.00436929 -0.706948 0 0 0 108 80 76
0.0564304 0.00308649 -0.705064 0 0 0 96 71 64
0.0564623 0.00378359 -0.703695 0 0 0 103 78 74
0.0564942 0.00448071 -0.702327 0 0 0 104 78 79
0.0565261 0.00517781 -0.700958 0 0 0 101 76 79
0.056558 0.00587491 -0.699589 0 0 0 95 69 78
0.0564235 0.00458184 -0.697725 0 0 0 95 65 89
0.0564554 0.00527724 -0.69636 0 0 0 100 70 98
0.0564872 0.00597264 -0.694994 0 0 0 102 73 93
0.0566857 0.00866334 -0.694114 0 0 0 101 73 87
0.0567176 0.00936045 -0.692745 0 0 0 98 72 81
0.0567495 0.0100576 -0.691377 0 0 0 101 83 83
0.0567814 0.0107547 -0.690008 0 0 0 91 83 72
0.056229 0.0044445 -0.686988 0 0 0 64 58 46
0.0566783 0.0101451 -0.686802 0 0 0 22 14 11
0.0567101 0.0108405 -0.685436 0 0 0 12 2 3
0.0560109 0.00461267 -0.673449 0 0 0 71 45 44
0.0560423 0.00529872 -0.672102 0 0 0 78 50 38
0.0562415 0.0080056 -0.67119 0 0 0 84 58 41
0.0566088 0.0127383 -0.670703 0 0 0 89 66 52
0.0563045 0.00938108 -0.668489 0 0 0 86 61 64
0.056504 0.0120947 -0.667564 0 0 0 73 51 63
0.0565356 0.0127842 -0.66621 0 0 0 17 1 14
0.0565672 0.0134736 -0.664856 0 0 0 9 0 8
0.0593703 0.00868992 -0.757859 0 0 0 214 170 187
0.0591524 0.00651857 -0.755519 0 0 0 221 173 185
0.0594364 0.0101335 -0.755025 0 0 0 224 174 183
0.0592182 0.00795705 -0.752694 0 0 0 226 177 181
0.0590836 0.00674234 -0.750676 0 0 0 227 178 184
0.0591164 0.00745989 -0.749267 0 0 0 225 177 193
0.0591493 0.00817741 -0.747859 0 0 0 223 179 194
0.0591821 0.00889495 -0.74645 0 0 0 218 179 184
0.0590471 0.0076718 -0.744449 0 0 0 206 174 179
0.0590799 0.00838764 -0.743043 0 0 0 202 175 192
0.0589446 0.00715931 -0.741052 0 0 0 201 176 206
0.0588092 0.00592766 -0.739068 0 0 0 195 168 209
0.0586736 0.00469254 -0.73709 0 0 0 181 153 201
0.0587061 0.00540327 -0.735694 0 0 0 161 133 181
0.0587387 0.00611399 -0.734299 0 0 0 145 118 161
0.0587712 0.00682472 -0.732903 0 0 0 130 105 135
0.0588037 0.00753545 -0.731508 0 0 0 104 80 104
0.0588363 0.00824616 -0.730112 0 0 0 93 69 91
0.0588688 0.00895689 -0.728717 0 0 0 88 62 87
0.0588949 0.0112533 -0.719805 0 0 0 79 52 43
0.0587582 0.00999266 -0.717878 0 0 0 87 60 30
0.0587905 0.0107 -0.716489 0 0 0 107 77 49
0.0586536 0.00943429 -0.714571 0 0 0 138 104 105
0.0585164 0.00816518 -0.71266 0 0 0 151 116 122
0.0583791 0.00689259 -0.710756 0 0 0 171 139 128
0.0584113 0.00759482 -0.709377 0 0 0 163 135 114
0.0582737 0.00631719 -0.707483 0 0 0 144 116 92
0.058136 0.00503611 -0.705596 0 0 0 129 103 78
0.0579982 0.00375168 -0.703715 0 0 0 120 93 72
0.0580301 0.00444878 -0.702346 0 0 0 118 92 75
0.058232 0.00713254 -0.701479 0 0 0 113 86 69
0.058094 0.005843 -0.699609 0 0 0 104 75 69
0.0581259 0.0065401 -0.69824 0 0 0 99 67 80
0.0579876 0.0052454 -0.696379 0 0 0 102 69 86
0.0581897 0.00793432 -0.695502 0 0 0 104 71 82
0.0582216 0.00863142 -0.694134 0 0 0 102 70 81
0.058424 0.0113254 -0.693247 0 0 0 95 64 79
0.058456 0.0120242 -0.691875 0 0 0 76 52 65
0.058488 0.012723 -0.690503 0 0 0 48 32 33
0.05852 0.0134218 -0.68913 0 0 0 33 21 21
0.0583812 0.012117 -0.68729 0 0 0 15 3 7
0.058584 0.0148194 -0.686386 0 0 0 15 2 11
0.058616 0.0155182 -0.685014 0 0 0 16 1 8
0.0586366 0.0176938 -0.67634 0 0 0 77 54 46
0.058497 0.0163719 -0.674532 0 0 0 86 63 45
0.0585288 0.0170673 -0.673167 0 0 0 93 73 46
0.058389 0.0157403 -0.67137 0 0 0 96 78 58
0.0583349 0.0154219 -0.669794 0 0 0 101 80 79
0.0583667 0.0161148 -0.668433 0 0 0 82 60 72
0.0583984 0.0168077 -0.667073 0 0 0 20 2 14
0.0584301 0.0175005 -0.665712 0 0 0 29 13 14
0.0611317 0.0105839 -0.758498 0 0 0 220 175 196
0.0609937 0.00937867 -0.756462 0 0 0 224 177 195
0.0610267 0.0101005 -0.755045 0 0 0 224 176 190
0.0608029 0.0079241 -0.752714 0 0 0 227 180 188
0.0608358 0.00864335 -0.751302 0 0 0 228 183 190
0.0608688 0.00936258 -0.74989 0 0 0 228 184 197
0.0609017 0.0100818 -0.748478 0 0 0 228 188 196
0.0607631 0.00886209 -0.74647 0 0 0 221 188 181
0.0607959 0.00957963 -0.745061 0 0 0 211 182 178
0.0606571 0.00835486 -0.743063 0 0 0 213 185 199
0.060518 0.00712663 -0.741072 0 0 0 235 206 234
0.0603788 0.00589505 -0.739088 0 0 0 230 202 240
0.0604115 0.00660747 -0.737689 0 0 0 211 182 226
0.0604441 0.0073199 -0.73629 0 0 0 197 168 214
0.0603046 0.00608145 -0.734319 0 0 0 184 155 199
0.0603371 0.00679217 -0.732923 0 0 0 159 132 167
0.0603697 0.00750291 -0.731528 0 0 0 124 99 128
0.0604022 0.00821363 -0.730132 0 0 0 131 106 135
0.0604348 0.00892435 -0.728737 0 0 0 128 103 133
0.0604571 0.0112209 -0.719825 0 0 0 70 45 41
0.0603166 0.00996028 -0.717897 0 0 0 74 46 22
0.060349 0.0106676 -0.716509 0 0 0 83 53 27
0.0602082 0.00940198 -0.714591 0 0 0 120 87 80
0.0602406 0.0101076 -0.713205 0 0 0 138 105 100
0.0602729 0.0108132 -0.71182 0 0 0 151 123 101
0.0601318 0.00954078 -0.709916 0 0 0 163 136 107
0.060164 0.0102447 -0.708534 0 0 0 171 146 115
0.0600228 0.0089671 -0.706639 0 0 0 164 139 108
0.0602285 0.0116525 -0.705769 0 0 0 130 107 76
0.0600871 0.0103715 -0.703882 0 0 0 125 102 71
0.0601192 0.0110737 -0.702503 0 0 0 117 92 62
0.0596299 0.00581107 -0.699628 0 0 0 107 80 59
0.0596618 0.00650819 -0.698259 0 0 0 99 69 67
0.0595197 0.00521356 -0.696399 0 0 0 97 65 70
0.0597256 0.00790239 -0.695522 0 0 0 95 63 64
0.0599317 0.0105946 -0.694638 0 0 0 93 61 66
0.0599637 0.0112934 -0.693266 0 0 0 77 44 61
0.0599957 0.0119922 -0.691894 0 0 0 58 29 47
0.0600277 0.012691 -0.690522 0 0 0 30 9 18
0.0600597 0.0133898 -0.68915 0 0 0 27 10 18
0.0600917 0.0140886 -0.687778 0 0 0 19 2 12
0.0601237 0.0147875 -0.686406 0 0 0 19 1 13
0.0601557 0.0154863 -0.685034 0 0 0 18 2 13
0.0601406 0.0169648 -0.677728 0 0 0 41 24 32
0.0601725 0.0176619 -0.676359 0 0 0 84 65 59
0.0602044 0.018359 -0.674991 0 0 0 95 76 61
0.0602363 0.0190561 -0.673622 0 0 0 102 84 62
0.0600928 0.0177309 -0.671821 0 0 0 100 83 63
0.0601247 0.0184263 -0.670456 0 0 0 103 84 78
0.0601565 0.0191217 -0.66909 0 0 0 95 75 77
0.0600128 0.0177896 -0.667303 0 0 0 38 19 25
0.0600445 0.0184833 -0.665941 0 0 0 36 19 12
0.0600763 0.019177 -0.664579 0 0 0 70 54 21
0.0630087 0.0129508 -0.762611 0 0 0 225 185 186
0.063042 0.0136777 -0.761184 0 0 0 222 179 196
0.0629005 0.0124777 -0.759138 0 0 0 221 177 204
0.0629337 0.0132029 -0.757714 0 0 0 212 166 194
0.0629669 0.0139281 -0.75629 0 0 0 209 164 187
0.0628251 0.0127213 -0.754257 0 0 0 213 170 187
0.0626832 0.011511 -0.752231 0 0 0 222 182 193
0.0627162 0.0122328 -0.750814 0 0 0 225 189 201
0.0627493 0.0129546 -0.749396 0 0 0 223 192 197
0.0625193 0.0107681 -0.747086 0 0 0 222 195 186
0.0623769 0.00954678 -0.745081 0 0 0 219 195 185
0.0624097 0.0102643 -0.743672 0 0 0 225 196 201
0.062267 0.00903791 -0.741678 0 0 0 225 194 212
0.0621242 0.00780806 -0.73969 0 0 0 220 187 216
0.0619811 0.00657485 -0.737709 0 0 0 226 195 229
0.0620138 0.00728727 -0.73631 0 0 0 226 194 231
0.0618705 0.00604892 -0.734339 0 0 0 206 176 212
0.0619031 0.00675963 -0.732943 0 0 0 187 158 189
0.0621116 0.00942456 -0.732113 0 0 0 172 145 176
0.0619681 0.00818109 -0.730152 0 0 0 152 125 156
0.0620007 0.00889181 -0.728757 0 0 0 147 120 155
0.0620332 0.00960254 -0.727361 0 0 0 121 94 135
0.0620193 0.0111884 -0.719845 0 0 0 70 44 57
0.061875 0.0099279 -0.717917 0 0 0 92 64 60
0.0619074 0.0106352 -0.716528 0 0 0 83 54 40
0.0619398 0.0113425 -0.71514 0 0 0 95 67 56
0.0619722 0.0120499 -0.713751 0 0 0 92 64 50
0.0620046 0.0127572 -0.712362 0 0 0 90 66 42
0.0618599 0.0114865 -0.710454 0 0 0 97 73 47
0.0618922 0.0121921 -0.709069 0 0 0 110 88 65
0.0617472 0.0109164 -0.707171 0 0 0 110 88 64
0.0619568 0.0136034 -0.706298 0 0 0 115 94 63
0.0618117 0.0123242 -0.704407 0 0 0 106 86 51
0.0618439 0.0130281 -0.703025 0 0 0 95 73 34
0.0611658 0.00577916 -0.699648 0 0 0 82 59 27
0.0611977 0.00647626 -0.698279 0 0 0 68 42 27
0.0612296 0.00717338 -0.69691 0 0 0 56 27 21
0.0612616 0.00787048 -0.695542 0 0 0 46 18 7
0.0614714 0.0105626 -0.694658 0 0 0 42 13 9
0.0615034 0.0112614 -0.693286 0 0 0 45 13 26
0.0617134 0.0139587 -0.692393 0 0 0 42 11 29
0.0617455 0.0146592 -0.691017 0 0 0 24 0 13
0.0615994 0.0133578 -0.68917 0 0 0 27 5 17
0.0616313 0.0140566 -0.687798 0 0 0 16 0 8
0.0616633 0.0147554 -0.686426 0 0 0 13 0 7
0.0618553 0.0189483 -0.678193 0 0 0 63 44 63
0.0618873 0.0196471 -0.676821 0 0 0 95 74 83
0.0617403 0.0183271 -0.67501 0 0 0 100 78 80
0.0617722 0.0190242 -0.673641 0 0 0 107 86 81
0.061625 0.017699 -0.671841 0 0 0 102 84 74
0.0616569 0.0183944 -0.670475 0 0 0 109 93 80
0.0615094 0.0170642 -0.668685 0 0 0 96 79 71
0.0615412 0.0177579 -0.667323 0 0 0 50 35 30
0.0615729 0.0184516 -0.66596 0 0 0 45 29 16
0.0616047 0.0191453 -0.664598 0 0 0 68 49 17
0.0643987 0.0102689 -0.76343 0 0 0 223 183 171
0.0644319 0.0109941 -0.762006 0 0 0 240 199 197
0.0644651 0.0117193 -0.760582 0 0 0 229 185 198
0.0644983 0.0124445 -0.759158 0 0 0 225 181 204
0.0645315 0.0131697 -0.757734 0 0 0 221 177 204
0.0645647 0.0138949 -0.75631 0 0 0 213 169 196
0.0644192 0.0126882 -0.754277 0 0 0 217 175 195
0.0644523 0.0134116 -0.752857 0 0 0 227 190 207
0.0643065 0.0121997 -0.750834 0 0 0 227 195 210
0.0643396 0.0129215 -0.749417 0 0 0 222 192 202
0.0643726 0.0136433 -0.747999 0 0 0 219 195 191
0.0641369 0.0114544 -0.745694 0 0 0 224 199 194
0.0641699 0.0121737 -0.744281 0 0 0 228 198 198
0.0640235 0.010949 -0.742283 0 0 0 230 197 206
0.063877 0.00972098 -0.740292 0 0 0 226 191 211
0.0637303 0.00848949 -0.738308 0 0 0 225 191 216
0.063763 0.00920363 -0.736906 0 0 0 221 188 217
0.0634365 0.00601637 -0.734359 0 0 0 215 182 213
0.0636487 0.00867952 -0.733532 0 0 0 213 183 211
0.0636813 0.00939195 -0.732133 0 0 0 208 179 207
0.0637139 0.0101044 -0.730734 0 0 0 188 159 189
0.0637465 0.0108168 -0.729336 0 0 0 164 137 172
0.0639592 0.0134884 -0.728492 0 0 0 157 129 170
0.0639919 0.0142025 -0.72709 0 0 0 156 127 171
0.0634335 0.00989552 -0.717937 0 0 0 96 69 84
0.0634659 0.0106028 -0.716548 0 0 0 85 59 68
0.0634982 0.0113102 -0.715159 0 0 0 81 60 59
0.0635306 0.0120175 -0.713771 0 0 0 65 45 38
0.063563 0.0127248 -0.712382 0 0 0 60 41 34
0.0634145 0.0114542 -0.710474 0 0 0 47 28 22
0.0634468 0.0121598 -0.709089 0 0 0 38 20 18
0.0632981 0.0108842 -0.707191 0 0 0 35 17 13
0.0635115 0.0135711 -0.706318 0 0 0 29 13 0
0.0635438 0.0142767 -0.704932 0 0 0 25 10 0
0.0633948 0.0129959 -0.703045 0 0 0 25 9 0
0.0627017 0.00574725 -0.699667 0 0 0 29 13 0
0.0627337 0.00644435 -0.698299 0 0 0 32 13 0
0.0632248 0.0132261 -0.693788 0 0 0 32 3 21
0.0632568 0.0139266 -0.692412 0 0 0 33 3 29
0.0632889 0.0146271 -0.691037 0 0 0 16 0 13
0.063139 0.0133258 -0.689189 0 0 0 22 0 20
0.063171 0.0140247 -0.687817 0 0 0 19 0 17
0.0635455 0.0202312 -0.680033 0 0 0 63 44 72
0.063395 0.0189163 -0.678212 0 0 0 88 69 91
0.063427 0.0196151 -0.67684 0 0 0 104 83 98
0.0632763 0.0182952 -0.67503 0 0 0 100 79 88
0.0633082 0.0189923 -0.673661 0 0 0 110 90 91
0.0633401 0.0196894 -0.672292 0 0 0 107 88 82
0.063372 0.0203865 -0.670923 0 0 0 108 94 83
0.0632209 0.019058 -0.669129 0 0 0 102 88 75
0.0632527 0.0197534 -0.667764 0 0 0 70 56 45
0.0630098 0.0174053 -0.665771 0 0 0 46 30 17
0.0630415 0.0180982 -0.66441 0 0 0 50 29 10
0.0659965 0.0102357 -0.76345 0 0 0 215 171 160
0.0660297 0.0109609 -0.762026 0 0 0 240 197 190
0.0660629 0.0116861 -0.760602 0 0 0 236 191 194
0.0660961 0.0124113 -0.759179 0 0 0 225 181 194
0.0663117 0.0150649 -0.75837 0 0 0 217 172 193
0.0661625 0.0138617 -0.756331 0 0 0 222 178 201
0.0661958 0.0145869 -0.754907 0 0 0 221 179 199
0.0660464 0.0133785 -0.752877 0 0 0 220 181 202
0.0658968 0.0121667 -0.750854 0 0 0 224 189 213
0.0659299 0.0128885 -0.749437 0 0 0 227 194 215
0.0659629 0.0136103 -0.74802 0 0 0 224 193 208
0.065996 0.0143321 -0.746602 0 0 0 226 195 203
0.0657546 0.0121407 -0.744302 0 0 0 229 194 198
0.0656044 0.0109161 -0.742304 0 0 0 230 191 196
0.0656373 0.0116337 -0.740895 0 0 0 222 184 197
0.0656701 0.0123512 -0.739486 0 0 0 216 177 196
0.0655197 0.0111199 -0.737501 0 0 0 215 177 200
0.0655525 0.0118357 -0.736096 0 0 0 216 181 205
0.0657687 0.0145038 -0.735259 0 0 0 213 179 203
0.065618 0.0132674 -0.733285 0 0 0 206 174 198
0.0654672 0.0120274 -0.731317 0 0 0 200 167 194
0.0654999 0.0127416 -0.729915 0 0 0 193 162 193
0.0657164 0.0154149 -0.729068 0 0 0 183 151 188
0.0657491 0.0161307 -0.727663 0 0 0 174 144 182
0.0659658 0.018809 -0.726806 0 0 0 170 140 178
0.0659987 0.0195266 -0.725397 0 0 0 157 127 161
0.0660315 0.0202441 -0.723988 0 0 0 137 108 138
0.0660644 0.0209616 -0.722579 0 0 0 118 93 123
0.0660972 0.0216792 -0.721171 0 0 0 108 86 125
0.0650243 0.0105704 -0.716568 0 0 0 89 69 106
0.0650567 0.0112778 -0.715179 0 0 0 57 42 65
0.0650891 0.0119851 -0.71379 0 0 0 29 16 34
0.0651214 0.0126924 -0.712402 0 0 0 16 3 29
0.0651538 0.0133997 -0.711013 0 0 0 16 3 33
0.0650015 0.0121275 -0.709108 0 0 0 15 4 36
0.0650338 0.0128332 -0.707723 0 0 0 14 4 31
0.0650661 0.0135388 -0.706338 0 0 0 13 4 21
0.0650984 0.0142444 -0.704952 0 0 0 11 3 14
0.0649458 0.0129637 -0.703064 0 0 0 13 3 11
0.0642377 0.00571532 -0.699687 0 0 0 14 5 10
0.0642696 0.00641244 -0.698318 0 0 0 15 4 10
0.0647682 0.013194 -0.693807 0 0 0 20 0 31
0.0648003 0.0138945 -0.692432 0 0 0 25 0 38
0.0653003 0.0207068 -0.687861 0 0 0 49 30 62
0.0653325 0.0214107 -0.686479 0 0 0 66 49 83
0.0651787 0.0201061 -0.684638 0 0 0 72 55 89
0.0648387 0.0167879 -0.682348 0 0 0 70 53 87
0.0650569 0.0194986 -0.681428 0 0 0 79 62 94
0.0650889 0.0201991 -0.680053 0 0 0 95 79 106
0.0649347 0.0188843 -0.678232 0 0 0 102 84 106
0.0649667 0.0195831 -0.67686 0 0 0 105 89 102
0.0648122 0.0182633 -0.675049 0 0 0 106 89 97
0.0648441 0.0189604 -0.67368 0 0 0 105 89 89
0.0646894 0.0176353 -0.67188 0 0 0 114 99 94
0.0647212 0.0183307 -0.670514 0 0 0 111 96 91
0.0645663 0.0170006 -0.668724 0 0 0 108 95 87
0.064598 0.0176944 -0.667361 0 0 0 79 67 55
0.0646298 0.0183881 -0.665999 0 0 0 47 30 22
0.0646616 0.0190818 -0.664637 0 0 0 23 0 6
0.0646933 0.0197755 -0.663275 0 0 0 58 29 31
0.0674086 0.00828094 -0.762841 0 0 0 196 153 137
0.0674417 0.00900443 -0.761421 0 0 0 230 187 171
0.0674748 0.00972793 -0.76 0 0 0 236 193 186
0.067694 0.0123781 -0.759199 0 0 0 238 193 196
0.0679133 0.0150317 -0.758391 0 0 0 234 190 203
0.0679465 0.0157586 -0.756964 0 0 0 234 189 209
0.0677936 0.0145537 -0.754927 0 0 0 229 186 205
0.0678268 0.0152789 -0.753503 0 0 0 225 183 203
0.0676736 0.0140689 -0.751477 0 0 0 227 187 213
0.0677067 0.0147924 -0.750056 0 0 0 230 191 218
0.0677398 0.0155159 -0.748636 0 0 0 230 192 215
0.0675863 0.014299 -0.746623 0 0 0 230 191 209
0.0676193 0.0150208 -0.745205 0 0 0 227 186 194
0.0673722 0.0128271 -0.742909 0 0 0 227 186 192
0.0672182 0.0116008 -0.740915 0 0 0 224 182 194
0.0672511 0.0123184 -0.739506 0 0 0 220 179 195
0.0672839 0.0130359 -0.738097 0 0 0 217 178 197
0.0671297 0.0118029 -0.736116 0 0 0 216 178 199
0.0673496 0.014471 -0.735279 0 0 0 211 176 196
0.0673825 0.0151885 -0.733871 0 0 0 206 171 193
0.0674153 0.015906 -0.732462 0 0 0 202 168 192
0.0674482 0.0166236 -0.731053 0 0 0 196 164 188
0.0674811 0.0173411 -0.729644 0 0 0 191 158 187
0.0675139 0.0180586 -0.728235 0 0 0 192 159 190
0.0675468 0.0187762 -0.726826 0 0 0 199 169 197
0.0675796 0.0194937 -0.725417 0 0 0 203 173 199
0.0676125 0.0202113 -0.724008 0 0 0 197 167 191
0.0676453 0.0209288 -0.7226 0 0 0 187 161 190
0.0676782 0.0216463 -0.721191 0 0 0 177 156 197
0.067711 0.0223639 -0.719782 0 0 0 144 127 169
0.0675558 0.0211088 -0.717844 0 0 0 95 82 110
0.0675885 0.0218246 -0.716438 0 0 0 49 39 66
0.0672447 0.0185883 -0.713988 0 0 0 23 12 52
0.0672774 0.0193007 -0.71259 0 0 0 15 4 47
0.0665562 0.0120952 -0.709128 0 0 0 10 2 43
0.0665885 0.0128008 -0.707743 0 0 0 7 0 36
0.0671866 0.0194551 -0.707884 0 0 0 13 6 37
0.0670305 0.0181813 -0.705983 0 0 0 13 7 33
0.0672517 0.0208765 -0.705093 0 0 0 12 7 30
0.0672842 0.0215873 -0.703698 0 0 0 12 4 25
0.0676362 0.0271374 -0.697202 0 0 0 17 2 35
0.0676688 0.0278499 -0.695803 0 0 0 33 15 53
0.0673227 0.0245625 -0.693454 0 0 0 54 33 72
0.0673551 0.0252715 -0.692061 0 0 0 66 49 85
0.0670085 0.0219739 -0.689732 0 0 0 83 68 99
0.0668512 0.0206745 -0.687881 0 0 0 110 97 125
0.0668835 0.0213785 -0.686499 0 0 0 129 116 146
0.0667259 0.0200739 -0.684658 0 0 0 134 119 150
0.0667581 0.0207761 -0.683279 0 0 0 132 115 147
0.0667902 0.0214783 -0.6819 0 0 0 126 107 135
0.0666324 0.0201671 -0.680073 0 0 0 121 101 126
0.0664744 0.0188523 -0.678252 0 0 0 112 93 112
0.0665064 0.0195511 -0.67688 0 0 0 110 92 106
0.0663481 0.0182313 -0.675069 0 0 0 114 94 103
0.06638 0.0189284 -0.6737 0 0 0 113 91 94
0.066412 0.0196256 -0.672331 0 0 0 117 95 97
0.0664439 0.0203227 -0.670963 0 0 0 124 103 108
0.0662852 0.0189943 -0.669168 0 0 0 115 97 97
0.0663171 0.0196897 -0.667803 0 0 0 88 74 65
0.0661582 0.0183563 -0.666019 0 0 0 49 31 29
0.0663808 0.0210805 -0.665072 0 0 0 22 0 19
0.0664126 0.0217759 -0.663707 0 0 0 49 20 38
0.0664444 0.0224713 -0.662341 0 0 0 100 69 51
0.0690026 0.0082478 -0.762862 0 0 0 190 147 128
0.0690357 0.00897131 -0.761441 0 0 0 225 183 159
0.0692586 0.0116197 -0.760643 0 0 0 241 199 183
0.0694815 0.0142715 -0.759839 0 0 0 247 204 198
0.0695148 0.0149984 -0.758411 0 0 0 241 196 203
0.0695481 0.0157253 -0.756984 0 0 0 243 197 210
0.0695814 0.0164522 -0.755557 0 0 0 242 198 213
0.0696147 0.0171791 -0.754129 0 0 0 236 192 209
0.069648 0.017906 -0.752702 0 0 0 226 181 202
0.069491 0.0166961 -0.750676 0 0 0 224 179 202
0.0695242 0.0174213 -0.749252 0 0 0 225 180 201
0.069367 0.0162062 -0.747235 0 0 0 226 179 197
0.0695906 0.0188717 -0.746404 0 0 0 224 177 193
0.0692427 0.0157095 -0.743808 0 0 0 225 178 194
0.0689898 0.0135134 -0.741517 0 0 0 226 179 197
0.068832 0.0122855 -0.739526 0 0 0 223 178 198
0.0688649 0.013003 -0.738117 0 0 0 220 177 197
0.0688977 0.0137206 -0.736708 0 0 0 216 174 194
0.0689306 0.0144381 -0.7353 0 0 0 210 171 189
0.0689634 0.0151556 -0.733891 0 0 0 208 169 187
0.0689963 0.0158732 -0.732482 0 0 0 205 168 186
0.0690291 0.0165907 -0.731073 0 0 0 194 160 177
0.069062 0.0173083 -0.729664 0 0 0 185 150 170
0.0690949 0.0180258 -0.728255 0 0 0 183 150 169
0.0691277 0.0187433 -0.726846 0 0 0 192 159 178
0.0689691 0.0174968 -0.724892 0 0 0 200 167 184
0.0691934 0.0201784 -0.724029 0 0 0 201 169 184
0.0692263 0.0208959 -0.72262 0 0 0 195 167 182
0.0692591 0.0216135 -0.721211 0 0 0 197 175 198
0.069292 0.022331 -0.719802 0 0 0 185 167 191
0.0691329 0.021076 -0.717864 0 0 0 170 156 173
0.0691657 0.0217918 -0.716458 0 0 0 158 143 164
0.0688144 0.0185557 -0.714008 0 0 0 151 136 169
0.068847 0.0192681 -0.712609 0 0 0 142 128 164
0.0688797 0.0199805 -0.711211 0 0 0 128 118 145
0.0689123 0.0206929 -0.709812 0 0 0 115 107 130
0.0687525 0.0194225 -0.707904 0 0 0 98 90 113
0.0687851 0.0201333 -0.706509 0 0 0 94 85 112
0.0688176 0.020844 -0.705113 0 0 0 85 76 105
0.0688502 0.0215547 -0.703717 0 0 0 75 66 87
0.0691406 0.0256799 -0.70002 0 0 0 93 82 90
0.0691732 0.0263924 -0.698621 0 0 0 106 98 111
0.0692059 0.0271048 -0.697222 0 0 0 105 105 117
0.0692385 0.0278172 -0.695823 0 0 0 117 119 132
0.0688848 0.02453 -0.693473 0 0 0 135 132 149
0.0689173 0.025239 -0.692081 0 0 0 142 138 153
0.0689498 0.025948 -0.690689 0 0 0 148 146 157
0.0689822 0.0266571 -0.689297 0 0 0 161 158 169
0.0686278 0.0233528 -0.68698 0 0 0 167 163 178
0.0684666 0.0220501 -0.685136 0 0 0 165 156 175
0.0684988 0.022754 -0.683754 0 0 0 156 138 160
0.0685311 0.023458 -0.682372 0 0 0 145 121 143
0.0681758 0.020135 -0.680092 0 0 0 131 106 125
0.068014 0.0188203 -0.678271 0 0 0 119 92 109
0.068046 0.0195191 -0.676899 0 0 0 116 89 106
0.068078 0.0202179 -0.675527 0 0 0 123 92 107
0.067916 0.0188965 -0.67372 0 0 0 126 90 100
0.0679479 0.0195936 -0.672351 0 0 0 129 93 103
0.0679798 0.0202907 -0.670982 0 0 0 134 104 116
0.0680117 0.0209879 -0.669613 0 0 0 125 99 110
0.0678493 0.0196579 -0.667822 0 0 0 103 83 84
0.0676866 0.0183245 -0.666038 0 0 0 44 23 30
0.0679129 0.0210487 -0.665092 0 0 0 15 0 19
0.0679448 0.0217441 -0.663726 0 0 0 40 12 34
0.0679766 0.0224395 -0.662361 0 0 0 97 69 55
0.0708232 0.0108613 -0.762087 0 0 0 210 173 147
0.0710498 0.0135113 -0.761286 0 0 0 242 205 187
0.0710831 0.0142382 -0.759859 0 0 0 251 212 205
0.07131 0.0168934 -0.759048 0 0 0 248 208 217
0.0713434 0.017622 -0.757617 0 0 0 240 199 217
0.0713767 0.0183506 -0.756186 0 0 0 237 196 214
0.0714101 0.0190792 -0.754756 0 0 0 236 193 213
0.0714434 0.0198078 -0.753325 0 0 0 232 187 208
0.0712828 0.0185996 -0.751295 0 0 0 231 186 207
0.0713161 0.0193265 -0.749868 0 0 0 229 182 200
0.0711552 0.0181133 -0.747848 0 0 0 222 175 193
0.0713826 0.0207803 -0.747014 0 0 0 225 176 195
0.0712216 0.0195636 -0.745 0 0 0 224 175 194
0.0708661 0.0163983 -0.742411 0 0 0 223 176 194
0.070413 0.0122527 -0.739546 0 0 0 223 176 194
0.0704458 0.0129702 -0.738137 0 0 0 220 175 195
0.0706733 0.0156381 -0.737301 0 0 0 215 172 191
0.0709983 0.0192855 -0.736743 0 0 0 211 170 186
0.0710313 0.0200072 -0.735325 0 0 0 210 169 185
0.0705772 0.0158403 -0.732502 0 0 0 213 175 190
0.0706101 0.0165579 -0.731093 0 0 0 203 167 181
0.0706429 0.0172754 -0.729684 0 0 0 194 158 172
0.0706758 0.0179929 -0.728275 0 0 0 192 155 172
0.0707086 0.0187105 -0.726866 0 0 0 195 158 175
0.0707415 0.019428 -0.725458 0 0 0 201 164 181
0.0707743 0.0201455 -0.724049 0 0 0 203 167 181
0.0708072 0.0208631 -0.72264 0 0 0 199 167 182
0.0710355 0.0235498 -0.721767 0 0 0 202 174 189
0.0708729 0.0222981 -0.719822 0 0 0 199 175 189
0.0707101 0.0210432 -0.717884 0 0 0 199 177 190
0.0707429 0.021759 -0.716479 0 0 0 200 179 198
0.0707757 0.0224749 -0.715073 0 0 0 202 182 210
0.0704167 0.0192355 -0.712629 0 0 0 202 183 213
0.0704493 0.0199479 -0.711231 0 0 0 194 179 198
0.070482 0.0206603 -0.709832 0 0 0 187 173 190
0.0703185 0.01939 -0.707924 0 0 0 185 170 193
0.070351 0.0201007 -0.706528 0 0 0 178 162 189
0.0703836 0.0208115 -0.705133 0 0 0 166 149 181
0.0706124 0.02351 -0.704236 0 0 0 153 138 161
0.0708415 0.026212 -0.703333 0 0 0 151 137 137
0.0708742 0.0269261 -0.701931 0 0 0 161 146 141
0.0709069 0.0276402 -0.700529 0 0 0 181 164 172
0.0709396 0.0283544 -0.699127 0 0 0 195 182 192
0.0709723 0.0290685 -0.697724 0 0 0 198 193 197
0.071005 0.0297826 -0.696322 0 0 0 199 197 200
0.0708408 0.028497 -0.694445 0 0 0 207 197 206
0.0706764 0.027208 -0.692573 0 0 0 206 195 203
0.070709 0.0279187 -0.691178 0 0 0 200 191 194
0.0707415 0.0286294 -0.689782 0 0 0 197 191 193
0.0705769 0.0273336 -0.687925 0 0 0 196 189 196
0.0702148 0.0240261 -0.685615 0 0 0 195 183 195
0.0702471 0.0247318 -0.684229 0 0 0 195 172 188
0.070082 0.0234257 -0.682392 0 0 0 174 148 161
0.0699167 0.0221163 -0.680561 0 0 0 152 125 134
0.0697513 0.0208034 -0.678736 0 0 0 135 108 115
0.0697834 0.0215039 -0.677361 0 0 0 132 104 116
0.0696177 0.0201859 -0.675547 0 0 0 138 106 117
0.0696497 0.0208848 -0.674175 0 0 0 135 98 105
0.0696817 0.0215836 -0.672803 0 0 0 133 94 99
0.0695157 0.0202588 -0.671002 0 0 0 144 104 115
0.0695476 0.0209559 -0.669633 0 0 0 143 107 119
0.0695796 0.021653 -0.668264 0 0 0 121 91 101
0.0694133 0.0203214 -0.666477 0 0 0 39 12 29
0.0694451 0.0210168 -0.665111 0 0 0 16 0 22
0.0696753 0.0237444 -0.664158 0 0 0 39 11 34
0.0697072 0.0244415 -0.662789 0 0 0 91 64 55
0.072421 0.0108281 -0.762108 0 0 0 168 136 113
0.0726514 0.013478 -0.761307 0 0 0 198 166 155
0.072882 0.0161314 -0.760499 0 0 0 195 164 169
0.0731127 0.0187882 -0.759684 0 0 0 194 162 185
0.0731461 0.0195185 -0.75825 0 0 0 186 153 184
0.072982 0.0183172 -0.756207 0 0 0 185 152 181
0.073213 0.0209791 -0.755382 0 0 0 188 154 181
0.0732464 0.0217094 -0.753948 0 0 0 188 153 177
0.0730821 0.020503 -0.751915 0 0 0 193 155 176
0.0729177 0.0192932 -0.749889 0 0 0 203 165 180
0.0729509 0.0200201 -0.748461 0 0 0 213 171 185
0.0729842 0.020747 -0.747034 0 0 0 223 176 194
0.0728194 0.0195304 -0.745021 0 0 0 222 173 192
0.0724564 0.0163652 -0.742432 0 0 0 219 172 188
0.0719939 0.0122198 -0.739566 0 0 0 219 172 188
0.072225 0.014886 -0.738733 0 0 0 216 172 187
0.0727539 0.0204809 -0.738753 0 0 0 213 171 185
0.072787 0.0212044 -0.737332 0 0 0 211 170 184
0.0726216 0.0199742 -0.735346 0 0 0 212 171 185
0.0726547 0.020696 -0.733928 0 0 0 207 166 182
0.0723897 0.0184822 -0.731672 0 0 0 201 163 178
0.0722239 0.0172425 -0.729704 0 0 0 199 160 178
0.0722567 0.0179601 -0.728295 0 0 0 200 161 180
0.0722896 0.0186776 -0.726887 0 0 0 199 160 181
0.0721234 0.0174313 -0.724932 0 0 0 202 162 186
0.0723553 0.0201127 -0.724069 0 0 0 204 164 190
0.0723881 0.0208302 -0.72266 0 0 0 203 163 187
0.072421 0.0215478 -0.721251 0 0 0 202 163 184
0.0724538 0.0222653 -0.719842 0 0 0 202 165 183
0.0722873 0.0210104 -0.717904 0 0 0 201 167 184
0.0723201 0.0217263 -0.716499 0 0 0 202 167 187
0.0723529 0.0224421 -0.715093 0 0 0 203 168 198
0.072186 0.0211804 -0.713169 0 0 0 202 169 198
0.072019 0.0199153 -0.711251 0 0 0 198 169 191
0.0720517 0.0206277 -0.709852 0 0 0 195 167 189
0.0718844 0.0193575 -0.707944 0 0 0 194 168 195
0.071917 0.0200682 -0.706548 0 0 0 191 164 195
0.0721495 0.022765 -0.705655 0 0 0 190 160 196
0.0721821 0.0234774 -0.704256 0 0 0 187 158 186
0.0722147 0.0241899 -0.702858 0 0 0 189 162 169
0.0722474 0.0249023 -0.701459 0 0 0 196 167 171
0.0724803 0.0276075 -0.700549 0 0 0 203 172 187
0.0723126 0.0263271 -0.698661 0 0 0 208 177 193
0.0723452 0.0270396 -0.697262 0 0 0 209 179 189
0.0725784 0.0297499 -0.696342 0 0 0 204 172 183
0.0724105 0.0284644 -0.694465 0 0 0 209 170 188
0.0724431 0.0291768 -0.693066 0 0 0 214 176 191
0.0722749 0.0278862 -0.691198 0 0 0 210 179 184
0.0723075 0.0285969 -0.689802 0 0 0 207 181 184
0.07234 0.0293076 -0.688407 0 0 0 209 186 192
0.0717695 0.0239938 -0.685635 0 0 0 215 192 200
0.072204 0.0287192 -0.68516 0 0 0 219 189 199
0.0722365 0.0294282 -0.683768 0 0 0 200 169 175
0.0718664 0.0261107 -0.681478 0 0 0 182 154 151
0.0714961 0.0227863 -0.679202 0 0 0 156 133 127
0.0713268 0.0214719 -0.677381 0 0 0 136 117 113
0.0713589 0.0221724 -0.676005 0 0 0 131 110 107
0.0713909 0.0228729 -0.67463 0 0 0 134 107 98
0.0712214 0.0215516 -0.672822 0 0 0 142 108 99
0.0712534 0.0222504 -0.67145 0 0 0 155 110 107
0.0712854 0.0229492 -0.670078 0 0 0 156 109 115
0.0711155 0.0216211 -0.668284 0 0 0 126 87 105
0.0709455 0.0202896 -0.666496 0 0 0 43 9 36
0.0709773 0.020985 -0.665131 0 0 0 25 0 27
0.0712112 0.0237125 -0.664177 0 0 0 38 10 33
0.0712432 0.0244095 -0.662809 0 0 0 76 48 47
0.0738179 0.00887192 -0.761502 0 0 0 129 101 87
0.074052 0.0115201 -0.760704 0 0 0 141 117 117
0.0742862 0.0141716 -0.7599 0 0 0 130 107 125
0.0747217 0.0187547 -0.759705 0 0 0 113 91 130
0.0747552 0.019485 -0.758271 0 0 0 103 81 130
0.0747886 0.0202153 -0.756837 0 0 0 104 82 128
0.0750234 0.0228789 -0.756009 0 0 0 126 103 145
0.0750569 0.0236109 -0.754572 0 0 0 152 126 163
0.0748889 0.0224062 -0.752535 0 0 0 165 139 168
0.0749224 0.0231365 -0.751101 0 0 0 176 148 170
0.0747542 0.0219269 -0.749074 0 0 0 193 160 181
0.0745858 0.0207137 -0.747054 0 0 0 208 164 189
0.0744173 0.0194972 -0.745041 0 0 0 212 164 188
0.0744505 0.0202224 -0.743617 0 0 0 213 165 187
0.0744837 0.0209476 -0.742193 0 0 0 212 167 187
0.0747189 0.0236213 -0.741345 0 0 0 212 168 185
0.074348 0.0204478 -0.738773 0 0 0 212 169 186
0.0743811 0.0211713 -0.737352 0 0 0 211 170 186
0.0744142 0.0218948 -0.735932 0 0 0 211 170 186
0.0744473 0.0226183 -0.734511 0 0 0 209 168 184
0.0744805 0.0233418 -0.733091 0 0 0 206 165 181
0.0740073 0.0191685 -0.73028 0 0 0 209 168 186
0.0738377 0.0179272 -0.728316 0 0 0 210 168 188
0.0738705 0.0186448 -0.726907 0 0 0 205 163 185
0.0739034 0.0193623 -0.725498 0 0 0 201 159 183
0.0739362 0.0200798 -0.724089 0 0 0 199 156 183
0.0739691 0.0207974 -0.72268 0 0 0 195 150 179
0.0740019 0.0215149 -0.721271 0 0 0 200 154 182
0.0740348 0.0222324 -0.719862 0 0 0 202 157 180
0.0740676 0.02295 -0.718453 0 0 0 202 159 176
0.0741005 0.0236675 -0.717045 0 0 0 201 160 178
0.0741333 0.0243851 -0.715636 0 0 0 198 158 182
0.0739628 0.0231251 -0.713708 0 0 0 197 159 184
0.0737922 0.0218618 -0.711786 0 0 0 196 161 185
0.0736213 0.0205951 -0.709872 0 0 0 195 161 186
0.073654 0.0213075 -0.708473 0 0 0 200 165 195
0.0736866 0.0220199 -0.707074 0 0 0 201 166 196
0.0737192 0.0227324 -0.705675 0 0 0 202 167 197
0.0737518 0.0234448 -0.704276 0 0 0 205 170 192
0.0739883 0.0261466 -0.703373 0 0 0 209 176 185
0.074021 0.0268607 -0.701971 0 0 0 213 178 184
0.0740537 0.0275748 -0.700569 0 0 0 212 175 192
0.0740864 0.028289 -0.699167 0 0 0 210 171 190
0.0741191 0.0290031 -0.697765 0 0 0 214 176 189
0.0741518 0.0297172 -0.696362 0 0 0 208 166 180
0.0741845 0.0304313 -0.69496 0 0 0 214 162 185
0.0740128 0.0291442 -0.693086 0 0 0 220 168 190
0.0740454 0.0298566 -0.691687 0 0 0 216 173 182
0.0738734 0.0285644 -0.689822 0 0 0 213 173 181
0.0739059 0.0292751 -0.688427 0 0 0 217 181 191
0.0739385 0.0299858 -0.687031 0 0 0 225 189 201
0.0737662 0.0286868 -0.68518 0 0 0 225 181 196
0.0737986 0.0293958 -0.683788 0 0 0 209 163 173
0.0732161 0.0240652 -0.681049 0 0 0 198 158 158
0.0730432 0.0227542 -0.679221 0 0 0 185 150 148
0.0730754 0.0234564 -0.677843 0 0 0 168 136 139
0.0731075 0.0241586 -0.676464 0 0 0 159 127 128
0.0731397 0.0248608 -0.675085 0 0 0 159 119 117
0.0729665 0.0235413 -0.673274 0 0 0 166 118 114
0.0727931 0.0222184 -0.67147 0 0 0 156 96 95
0.0728251 0.0229172 -0.670098 0 0 0 143 83 91
0.0726514 0.0215892 -0.668303 0 0 0 114 64 89
0.0726833 0.0222863 -0.666934 0 0 0 54 13 45
0.0727153 0.0229834 -0.665566 0 0 0 33 0 29
0.075412 0.0088388 -0.761522 0 0 0 114 93 92
0.0756498 0.0114869 -0.760725 0 0 0 122 104 120
0.0762974 0.017991 -0.761159 0 0 0 118 104 140
0.0763308 0.0187213 -0.759725 0 0 0 86 72 134
0.0763642 0.0194516 -0.758291 0 0 0 79 67 141
0.0766027 0.0221133 -0.757467 0 0 0 79 69 138
0.0768413 0.0247784 -0.756635 0 0 0 97 88 151
0.0766697 0.0235774 -0.754592 0 0 0 113 104 159
0.0767033 0.0243094 -0.753155 0 0 0 108 99 146
0.0767368 0.0250414 -0.751718 0 0 0 113 101 141
0.0765649 0.0238334 -0.749687 0 0 0 140 118 156
0.0761874 0.0206804 -0.747075 0 0 0 180 139 179
0.0762206 0.0214073 -0.745648 0 0 0 196 148 186
0.0760483 0.0201892 -0.743638 0 0 0 206 159 193
0.0760815 0.0209144 -0.742214 0 0 0 209 163 192
0.0763205 0.023588 -0.741366 0 0 0 210 164 190
0.0761479 0.0223648 -0.739366 0 0 0 209 165 188
0.0761811 0.02309 -0.737942 0 0 0 208 166 186
0.0762143 0.0238152 -0.736518 0 0 0 208 167 185
0.0762475 0.0245404 -0.735094 0 0 0 208 167 183
0.0762807 0.0252656 -0.73367 0 0 0 204 163 179
0.0759014 0.0220735 -0.731134 0 0 0 208 167 181
0.0756249 0.0198548 -0.728888 0 0 0 212 171 185
0.0754515 0.0186119 -0.726927 0 0 0 208 165 182
0.0754843 0.0193294 -0.725518 0 0 0 204 161 180
0.0755172 0.020047 -0.724109 0 0 0 200 156 179
0.07555 0.0207645 -0.7227 0 0 0 193 147 176
0.0755829 0.0214821 -0.721291 0 0 0 196 146 183
0.0756157 0.0221996 -0.719882 0 0 0 200 149 180
0.0756486 0.0229171 -0.718474 0 0 0 203 156 172
0.0756814 0.0236347 -0.717065 0 0 0 204 161 170
0.0757143 0.0243522 -0.715656 0 0 0 204 163 177
0.07554 0.0230924 -0.713728 0 0 0 202 163 182
0.0755728 0.0238082 -0.712322 0 0 0 201 162 189
0.0753983 0.0225432 -0.710404 0 0 0 200 163 194
0.075431 0.0232574 -0.709002 0 0 0 201 165 191
0.0754637 0.0239715 -0.7076 0 0 0 201 166 188
0.0754964 0.0246856 -0.706198 0 0 0 199 165 181
0.0753215 0.0234122 -0.704296 0 0 0 198 165 174
0.0755618 0.0261139 -0.703393 0 0 0 202 167 173
0.0755945 0.026828 -0.701991 0 0 0 206 169 176
0.0756272 0.0275421 -0.700589 0 0 0 207 169 182
0.0756599 0.0282563 -0.699187 0 0 0 206 167 185
0.0756926 0.0289704 -0.697785 0 0 0 214 180 194
0.0757253 0.0296845 -0.696382 0 0 0 211 172 190
0.075758 0.0303987 -0.69498 0 0 0 216 168 194
0.0755825 0.0291116 -0.693106 0 0 0 221 168 196
0.0756151 0.029824 -0.691707 0 0 0 217 170 186
0.0756477 0.0305365 -0.690308 0 0 0 216 172 185
0.0754719 0.0292425 -0.688447 0 0 0 221 176 197
0.0755044 0.0299532 -0.687051 0 0 0 227 177 202
0.075537 0.030664 -0.685656 0 0 0 233 170 199
0.0753608 0.0293633 -0.683808 0 0 0 204 135 163
0.0753933 0.0300723 -0.682416 0 0 0 189 122 140
0.0745904 0.022722 -0.679241 0 0 0 191 124 142
0.0746226 0.0234242 -0.677862 0 0 0 187 123 149
0.0746547 0.0241264 -0.676483 0 0 0 178 109 137
0.0746869 0.0248287 -0.675105 0 0 0 157 82 105
0.074719 0.0255309 -0.673726 0 0 0 144 63 80
0.074542 0.0242098 -0.671918 0 0 0 134 54 67
0.0743647 0.0228852 -0.670117 0 0 0 113 40 57
0.0741874 0.0215573 -0.668323 0 0 0 101 40 71
0.0742193 0.0222544 -0.666954 0 0 0 70 23 55
0.0779064 0.0179575 -0.76118 0 0 0 106 99 143
0.0779399 0.0186878 -0.759746 0 0 0 94 92 157
0.078182 0.0213478 -0.758924 0 0 0 81 83 157
0.0782155 0.0220798 -0.757487 0 0 0 69 76 146
0.0784579 0.0247449 -0.756656 0 0 0 80 88 153
0.0784915 0.0254786 -0.755215 0 0 0 92 98 156
0.0783161 0.0242758 -0.753175 0 0 0 78 84 136
0.0783496 0.0250079 -0.751738 0 0 0 77 80 125
0.0783831 0.0257398 -0.750301 0 0 0 110 99 139
0.0784166 0.0264719 -0.748863 0 0 0 155 123 160
0.0778222 0.0213741 -0.745668 0 0 0 182 138 171
0.0776461 0.020156 -0.743658 0 0 0 201 156 185
0.0778888 0.0228279 -0.742813 0 0 0 208 164 189
0.077922 0.0235547 -0.741386 0 0 0 207 164 184
0.0777457 0.0223316 -0.739386 0 0 0 207 164 183
0.0779886 0.0250085 -0.738532 0 0 0 207 164 183
0.0778121 0.023782 -0.736538 0 0 0 205 162 181
0.0778453 0.0245072 -0.735115 0 0 0 207 164 183
0.0778785 0.0252324 -0.733691 0 0 0 200 159 175
0.0777017 0.023999 -0.731711 0 0 0 204 163 177
0.0772096 0.0198218 -0.728908 0 0 0 211 171 182
0.0770324 0.0185791 -0.726947 0 0 0 210 168 180
0.0770653 0.0192966 -0.725538 0 0 0 208 166 180
0.0770981 0.0200141 -0.724129 0 0 0 204 161 180
0.077131 0.0207317 -0.72272 0 0 0 196 150 176
0.0771638 0.0214492 -0.721311 0 0 0 200 151 183
0.0771967 0.0221667 -0.719903 0 0 0 200 149 180
0.0772295 0.0228843 -0.718494 0 0 0 200 153 169
0.0772624 0.0236018 -0.717085 0 0 0 201 158 168
0.0772952 0.0243193 -0.715676 0 0 0 203 161 173
0.0771172 0.0230596 -0.713748 0 0 0 205 164 182
0.07715 0.0237754 -0.712342 0 0 0 206 166 192
0.0771828 0.0244913 -0.710937 0 0 0 207 168 197
0.0770044 0.0232247 -0.709022 0 0 0 205 167 192
0.0770371 0.0239388 -0.70762 0 0 0 206 169 187
0.0770698 0.0246529 -0.706218 0 0 0 204 168 178
0.0771025 0.0253671 -0.704816 0 0 0 199 164 168
0.0771352 0.0260812 -0.703413 0 0 0 198 162 166
0.0771679 0.0267953 -0.702011 0 0 0 202 162 170
0.0772006 0.0275094 -0.700609 0 0 0 207 167 178
0.0772333 0.0282236 -0.699207 0 0 0 207 169 182
0.077266 0.0289377 -0.697805 0 0 0 205 172 181
0.0775105 0.0316496 -0.696882 0 0 0 206 170 182
0.0773314 0.030366 -0.695 0 0 0 214 166 188
0.0771521 0.029079 -0.693126 0 0 0 214 165 187
0.0771848 0.0297914 -0.691727 0 0 0 213 169 186
0.0772174 0.0305038 -0.690328 0 0 0 220 176 191
0.0770378 0.02921 -0.688467 0 0 0 228 181 199
0.0770703 0.0299207 -0.687071 0 0 0 234 176 201
0.0771029 0.0306314 -0.685676 0 0 0 226 146 185
0.0771354 0.0313422 -0.68428 0 0 0 209 112 155
0.077168 0.0320529 -0.682885 0 0 0 203 99 134
0.0769879 0.0307489 -0.681044 0 0 0 197 89 123
0.0770204 0.0314579 -0.679651 0 0 0 173 68 109
0.0768401 0.0301488 -0.67782 0 0 0 149 44 85
0.0766597 0.0288362 -0.675996 0 0 0 130 25 58
0.0764791 0.0275203 -0.674178 0 0 0 126 21 51
0.0765113 0.0282242 -0.672796 0 0 0 112 15 35
0.0765436 0.0289281 -0.671414 0 0 0 96 8 30
0.0765758 0.0296321 -0.670032 0 0 0 103 30 60
0.0795489 0.0186544 -0.759766 0 0 0 86 96 147
0.0797948 0.0213143 -0.758945 0 0 0 76 93 147
0.0800409 0.0239775 -0.758117 0 0 0 69 92 144
0.0803933 0.0276107 -0.757586 0 0 0 70 96 145
0.080108 0.025445 -0.755236 0 0 0 73 97 143
0.0801416 0.0261787 -0.753795 0 0 0 73 95 136
0.0801752 0.0269124 -0.752355 0 0 0 76 94 132
0.0802088 0.0276461 -0.750914 0 0 0 91 94 125
0.0800294 0.0264383 -0.748884 0 0 0 108 87 104
0.080063 0.0271703 -0.747447 0 0 0 178 145 152
0.0794903 0.0227946 -0.742834 0 0 0 204 165 168
0.0795236 0.0235215 -0.741407 0 0 0 203 162 166
0.0795569 0.0242484 -0.739979 0 0 0 211 168 177
0.0795902 0.0249753 -0.738552 0 0 0 211 167 182
0.0794099 0.0237488 -0.736559 0 0 0 208 163 183
0.0794431 0.024474 -0.735135 0 0 0 211 166 187
0.07969 0.027156 -0.73427 0 0 0 206 163 183
0.0795095 0.0259244 -0.732287 0 0 0 206 163 180
0.0787943 0.0197889 -0.728929 0 0 0 212 170 182
0.0786133 0.0185462 -0.726967 0 0 0 214 172 184
0.0786462 0.0192637 -0.725558 0 0 0 209 167 179
0.078679 0.0199813 -0.724149 0 0 0 205 161 178
0.0787119 0.0206988 -0.72274 0 0 0 204 159 179
0.0787447 0.0214163 -0.721332 0 0 0 208 161 181
0.0789919 0.0241043 -0.720455 0 0 0 203 158 178
0.0790248 0.0248236 -0.719043 0 0 0 202 157 178
0.0788433 0.0235689 -0.717105 0 0 0 208 165 185
0.0790907 0.026262 -0.716219 0 0 0 213 170 189
0.0791236 0.0269813 -0.714807 0 0 0 211 170 188
0.0789419 0.0257216 -0.712878 0 0 0 211 169 191
0.0789747 0.0264391 -0.71147 0 0 0 215 173 195
0.0790076 0.0271566 -0.710061 0 0 0 210 168 192
0.0790404 0.0278742 -0.708652 0 0 0 206 164 184
0.0788583 0.026606 -0.70674 0 0 0 206 166 177
0.078676 0.0253344 -0.704836 0 0 0 204 164 172
0.079139 0.0300268 -0.704425 0 0 0 203 162 168
0.0787414 0.0267626 -0.702031 0 0 0 203 160 167
0.0787741 0.0274767 -0.700629 0 0 0 205 162 172
0.0788068 0.0281909 -0.699227 0 0 0 216 174 184
0.0788395 0.028905 -0.697825 0 0 0 209 173 177
0.0788721 0.0296191 -0.696422 0 0 0 210 174 176
0.0789048 0.0303333 -0.69502 0 0 0 217 172 179
0.0787218 0.0290464 -0.693146 0 0 0 217 171 182
0.0787545 0.0297588 -0.691747 0 0 0 213 172 188
0.0787871 0.0304712 -0.690348 0 0 0 217 179 192
0.0786037 0.0291774 -0.688487 0 0 0 224 183 187
0.0786363 0.0298882 -0.687091 0 0 0 235 174 189
0.0786688 0.0305989 -0.685696 0 0 0 224 127 172
0.0787014 0.0313096 -0.6843 0 0 0 195 67 124
0.0787339 0.0320204 -0.682905 0 0 0 168 18 66
0.0785501 0.0307164 -0.681063 0 0 0 170 13 58
0.0785826 0.0314254 -0.679671 0 0 0 172 20 67
0.0783986 0.0301164 -0.67784 0 0 0 175 32 76
0.0782144 0.0288039 -0.676015 0 0 0 136 8 41
0.0782467 0.0295095 -0.67463 0 0 0 127 9 35
0.078279 0.0302152 -0.673245 0 0 0 122 5 31
0.0783113 0.0309208 -0.671859 0 0 0 111 7 32
0.0783436 0.0316264 -0.670474 0 0 0 101 15 40
0.0821981 0.0287719 -0.759662 0 0 0 73 95 132
0.0822319 0.0295099 -0.758213 0 0 0 73 97 133
0.0820492 0.0283133 -0.756161 0 0 0 74 94 129
0.0817582 0.0261451 -0.753816 0 0 0 70 89 121
0.0817918 0.0268788 -0.752375 0 0 0 74 87 119
0.0821504 0.0305221 -0.751824 0 0 0 87 88 109
0.081859 0.0283462 -0.749494 0 0 0 125 106 110
0.0818926 0.0290799 -0.748053 0 0 0 191 160 155
0.0811917 0.024942 -0.738572 0 0 0 217 172 177
0.081225 0.0256689 -0.737145 0 0 0 216 170 181
0.0812583 0.0263958 -0.735718 0 0 0 213 166 182
0.0812916 0.0271227 -0.734291 0 0 0 208 164 179
0.0811074 0.0258912 -0.732307 0 0 0 209 166 176
0.0811406 0.0266164 -0.730883 0 0 0 214 171 180
0.0803257 0.0213835 -0.721352 0 0 0 204 158 168
0.0805766 0.0240714 -0.720476 0 0 0 212 169 179
0.0809367 0.0277487 -0.719857 0 0 0 213 168 188
0.0804242 0.0235361 -0.717125 0 0 0 211 166 189
0.0810028 0.0291922 -0.717023 0 0 0 215 170 190
0.0807083 0.0269484 -0.714827 0 0 0 214 171 188
0.0807413 0.0276676 -0.713414 0 0 0 213 171 185
0.0807742 0.0283868 -0.712002 0 0 0 218 176 190
0.0808071 0.0291061 -0.71059 0 0 0 211 168 185
0.08084 0.0298253 -0.709178 0 0 0 214 170 185
0.0806542 0.0285589 -0.707263 0 0 0 213 170 179
0.0806871 0.0292764 -0.705854 0 0 0 207 165 167
0.0807199 0.0299939 -0.704445 0 0 0 209 168 166
0.0805338 0.0287207 -0.702544 0 0 0 217 173 172
0.0803475 0.027444 -0.700649 0 0 0 215 170 173
0.0805993 0.0301524 -0.699733 0 0 0 214 172 174
0.0804129 0.0288723 -0.697845 0 0 0 213 175 172
0.0804456 0.0295864 -0.696442 0 0 0 215 178 172
0.0802589 0.0283013 -0.694564 0 0 0 222 177 171
0.0802915 0.0290137 -0.693166 0 0 0 223 178 175
0.0803241 0.0297262 -0.691767 0 0 0 220 179 185
0.0803568 0.0304386 -0.690368 0 0 0 220 181 184
0.0801697 0.0291449 -0.688507 0 0 0 220 180 172
0.0802022 0.0298556 -0.687111 0 0 0 227 165 168
0.0802348 0.0305664 -0.685716 0 0 0 222 120 160
0.0802673 0.0312771 -0.68432 0 0 0 184 47 103
0.0802998 0.0319878 -0.682925 0 0 0 184 18 68
0.0803324 0.0326985 -0.681529 0 0 0 180 4 53
0.0803649 0.0334093 -0.680134 0 0 0 189 16 69
0.079957 0.030084 -0.67786 0 0 0 180 20 64
0.0799894 0.0307913 -0.676471 0 0 0 167 27 54
0.0798014 0.0294772 -0.67465 0 0 0 130 3 22
0.0798337 0.0301829 -0.673264 0 0 0 126 4 25
0.079866 0.0308885 -0.671879 0 0 0 110 1 22
0.0798983 0.0315941 -0.670493 0 0 0 102 13 31
0.083824 0.0287381 -0.759682 0 0 0 98 100 123
0.0840779 0.0314089 -0.75884 0 0 0 97 99 124
0.0838916 0.0302141 -0.756784 0 0 0 93 91 115
0.0837051 0.0290158 -0.754736 0 0 0 88 82 108
0.0834084 0.0268452 -0.752396 0 0 0 92 79 105
0.083442 0.0275789 -0.750955 0 0 0 101 82 101
0.0834756 0.0283126 -0.749515 0 0 0 151 122 124
0.0835092 0.0290463 -0.748074 0 0 0 177 143 133
0.0828266 0.0256356 -0.737166 0 0 0 200 152 152
0.0828599 0.0263625 -0.735738 0 0 0 198 149 153
0.0828932 0.0270894 -0.734311 0 0 0 201 155 158
0.0829264 0.0278163 -0.732884 0 0 0 205 159 159
0.0821284 0.0233192 -0.721908 0 0 0 207 161 164
0.0821613 0.0240385 -0.720496 0 0 0 207 161 164
0.082527 0.0277156 -0.719878 0 0 0 215 167 179
0.0825601 0.0284374 -0.71846 0 0 0 211 165 178
0.0825931 0.0291592 -0.717043 0 0 0 200 154 167
0.0826262 0.029881 -0.715626 0 0 0 211 165 175
0.0823259 0.0276347 -0.713435 0 0 0 221 176 181
0.0823589 0.0283539 -0.712022 0 0 0 205 163 165
0.0823918 0.0290731 -0.71061 0 0 0 209 167 171
0.0824247 0.0297924 -0.709198 0 0 0 213 168 173
0.0824577 0.0305116 -0.707786 0 0 0 213 169 168
0.082268 0.0292435 -0.705874 0 0 0 218 174 165
0.0823009 0.0299611 -0.704465 0 0 0 222 179 162
0.0818882 0.0266972 -0.702071 0 0 0 220 177 158
0.0819209 0.0274113 -0.700669 0 0 0 218 174 161
0.0819536 0.0281255 -0.699267 0 0 0 222 179 170
0.0819863 0.0288396 -0.697865 0 0 0 216 177 170
0.082019 0.0295537 -0.696463 0 0 0 217 177 167
0.0818286 0.0282687 -0.694584 0 0 0 224 177 157
0.0818612 0.0289811 -0.693186 0 0 0 225 174 155
0.0818938 0.0296935 -0.691787 0 0 0 218 171 161
0.0819264 0.030406 -0.690388 0 0 0 217 170 162
0.0817356 0.0291124 -0.688527 0 0 0 216 169 153
0.0817682 0.0298231 -0.687131 0 0 0 221 156 152
0.0818007 0.0305338 -0.685736 0 0 0 228 128 156
0.0818332 0.0312446 -0.68434 0 0 0 196 66 110
0.0818658 0.0319553 -0.682945 0 0 0 187 34 78
0.0818983 0.032666 -0.681549 0 0 0 189 23 69
0.0819309 0.0333767 -0.680153 0 0 0 191 27 78
0.0819634 0.0340874 -0.678758 0 0 0 197 40 83
0.0815478 0.0307589 -0.676491 0 0 0 201 58 76
0.081356 0.0294449 -0.67467 0 0 0 160 30 38
0.0813884 0.0301505 -0.673284 0 0 0 128 12 21
0.08545 0.0287043 -0.759703 0 0 0 116 103 112
0.0857076 0.0313751 -0.758861 0 0 0 116 100 111
0.0855176 0.0301803 -0.756805 0 0 0 110 90 102
0.0853273 0.0289821 -0.754757 0 0 0 103 79 93
0.0850249 0.0268116 -0.752416 0 0 0 105 77 92
0.0850585 0.0275453 -0.750976 0 0 0 113 80 91
0.0850921 0.028279 -0.749535 0 0 0 147 109 108
0.083713 0.0232863 -0.721928 0 0 0 182 131 130
0.083746 0.0240055 -0.720516 0 0 0 180 129 128
0.0842165 0.0298479 -0.715646 0 0 0 182 131 140
0.0842496 0.0305697 -0.714229 0 0 0 178 129 132
0.0842826 0.0312915 -0.712812 0 0 0 169 121 121
0.0843157 0.0320133 -0.711394 0 0 0 180 131 134
0.0843487 0.0327351 -0.709977 0 0 0 186 137 140
0.0843817 0.0334569 -0.70856 0 0 0 175 125 126
0.0840753 0.0311979 -0.706394 0 0 0 163 114 107
0.0838818 0.0299282 -0.704486 0 0 0 161 114 94
0.0834617 0.0266645 -0.702091 0 0 0 165 117 95
0.0834944 0.0273787 -0.700689 0 0 0 175 126 112
0.0835271 0.0280928 -0.699287 0 0 0 182 133 128
0.0835598 0.0288069 -0.697885 0 0 0 179 133 135
0.0835925 0.029521 -0.696483 0 0 0 179 131 129
0.0833983 0.0282361 -0.694604 0 0 0 184 129 109
0.0834309 0.0289485 -0.693206 0 0 0 181 125 102
0.0834635 0.0296609 -0.691807 0 0 0 175 122 108
0.0833015 0.0290798 -0.688546 0 0 0 182 131 114
0.0833341 0.0297906 -0.687151 0 0 0 190 127 120
0.0833666 0.0305013 -0.685755 0 0 0 196 109 128
0.0833992 0.031212 -0.68436 0 0 0 203 95 127
0.0834317 0.0319227 -0.682964 0 0 0 153 30 59
0.0834643 0.0326335 -0.681569 0 0 0 188 57 89
0.0834968 0.0333442 -0.680173 0 0 0 155 23 62
0.0835293 0.0340549 -0.678778 0 0 0 200 69 100
0.0835619 0.0347656 -0.677382 0 0 0 177 53 61
0.0858399 0.0305367 -0.714249 0 0 0 145 88 94
0.0858729 0.0312585 -0.712832 0 0 0 140 83 89
0.0855612 0.0290073 -0.710651 0 0 0 144 87 96
0.085939 0.0327021 -0.709998 0 0 0 113 55 67
0.0859721 0.0334238 -0.70858 0 0 0 77 19 31
