ply
format ascii 1.0
element vertex 1056
property float x
property float y
property float z
property float nx
property float ny
property float nz
property uchar red
property uchar green
property uchar blue
end_header
0.062731 0.0673038 -0.685282 0 0 0 107 74 69
0.0628162 0.0657996 -0.685247 0 0 0 113 80 73
0.0627991 0.0643046 -0.685237 0 0 0 116 83 76
0.0646221 0.062653 -0.68477 0 0 0 114 84 74
0.0662408 0.0610252 -0.684353 0 0 0 109 79 68
0.0676551 0.0594201 -0.683987 0 0 0 111 83 71
0.068865 0.0578365 -0.683673 0 0 0 106 83 69
0.0702793 0.0562415 -0.683307 0 0 0 96 74 61
0.0709781 0.0547061 -0.68312 0 0 0 79 59 50
0.0739261 0.0530067 -0.682372 0 0 0 44 25 18
0.0761588 0.0513698 -0.681803 0 0 0 16 0 0
0.0801296 0.0496189 -0.680802 0 0 0 33 10 0
0.0820555 0.0480228 -0.680309 0 0 0 65 30 0
0.0830613 0.0464952 -0.680045 0 0 0 127 88 45
0.0830447 0.0450377 -0.680036 0 0 0 147 113 85
0.0832326 0.0435674 -0.679976 0 0 0 143 115 103
0.0842385 0.0420477 -0.679713 0 0 0 138 113 119
0.0848355 0.040556 -0.679551 0 0 0 144 108 122
0.0850234 0.0390902 -0.679491 0 0 0 139 78 93
0.0850068 0.0376364 -0.679482 0 0 0 133 71 76
0.0853993 0.0361607 -0.679371 0 0 0 178 130 118
0.0871213 0.0346172 -0.67893 0 0 0 190 133 116
0.0875138 0.0331469 -0.678819 0 0 0 203 108 102
0.0870883 0.0317177 -0.678911 0 0 0 197 85 81
0.0870718 0.0302679 -0.678902 0 0 0 168 57 46
0.0863392 0.0288501 -0.679071 0 0 0 193 90 81
0.0861181 0.0274078 -0.679113 0 0 0 232 143 145
0.0830332 0.0260822 -0.679867 0 0 0 224 153 159
0.0798459 0.0247494 -0.680646 0 0 0 223 173 176
0.0776813 0.0233667 -0.681171 0 0 0 220 182 181
0.076028 0.021958 -0.681568 0 0 0 217 182 180
0.0753975 0.0205088 -0.681711 0 0 0 205 173 186
0.0737439 0.01909 -0.682109 0 0 0 181 152 196
0.0729088 0.0176406 -0.682303 0 0 0 108 85 141
0.0677774 0.0163092 -0.683565 0 0 0 30 16 65
0.065919 0.0148729 -0.684013 0 0 0 11 0 34
0.0650837 0.0134047 -0.684207 0 0 0 9 0 7
0.0638391 0.0119429 -0.684503 0 0 0 26 7 3
0.0614692 0.0104999 -0.685078 0 0 0 43 13 2
0.0611452 0.00900946 -0.685145 0 0 0 78 42 18
0.0603097 0.00752666 -0.685339 0 0 0 108 70 34
0.0596788 0.00603772 -0.685482 0 0 0 108 69 36
0.059457 0.004541 -0.685523 0 0 0 103 70 51
0.0565751 0.0030746 -0.686225 0 0 0 113 79 77
0.0551256 0.00158358 -0.686571 0 0 0 115 78 95
0.0518342 0.000102083 -0.687375 0 0 0 114 79 101
0.0501797 -0.00140154 -0.687772 0 0 0 114 80 97
0.0485253 -0.00291117 -0.688169 0 0 0 117 85 100
0.0466663 -0.00442629 -0.688617 0 0 0 122 91 106
0.0464443 -0.00594928 -0.688658 0 0 0 125 94 110
0.0451989 -0.00747419 -0.688953 0 0 0 126 95 113
0.0443628 -0.00900238 -0.689147 0 0 0 131 98 117
0.0435268 -0.0105336 -0.68934 0 0 0 122 90 105
0.0422813 -0.0120705 -0.689636 0 0 0 105 74 82
0.0402172 -0.0136189 -0.690134 0 0 0 100 70 72
0.039995 -0.0151557 -0.690175 0 0 0 76 48 47
0.0387494 -0.0167058 -0.69047 0 0 0 37 11 12
0.0295208 -0.0183719 -0.692746 0 0 0 30 5 11
0.0290938 -0.0199327 -0.692838 0 0 0 22 0 12
0.0290761 -0.0214877 -0.692828 0 0 0 36 16 28
0.0290583 -0.0230427 -0.692818 0 0 0 77 61 64
0.0290406 -0.0245977 -0.692809 0 0 0 118 102 102
0.0156988 -0.0280401 -0.696089 0 0 0 138 113 117
0.0141455 -0.0296606 -0.69646 0 0 0 137 108 112
0.0123361 -0.0312941 -0.696894 0 0 0 139 108 114
0.012318 -0.0328796 -0.696884 0 0 0 131 99 110
0.0110204 -0.0345065 -0.697192 0 0 0 123 90 101
0.00818716 -0.0361904 -0.69788 0 0 0 123 91 94
0.00996051 -0.037719 -0.697426 0 0 0 126 96 96
0.011478 -0.0392506 -0.697035 0 0 0 130 100 100
0.00531741 -0.0410809 -0.698547 0 0 0 99 68 73
0.00734668 -0.0425942 -0.69803 0 0 0 50 16 32
0.0073285 -0.0441886 -0.69802 0 0 0 51 17 31
0.0337173 0.099308 -0.691263 0 0 0 50 20 28
0.0367681 0.0973813 -0.690493 0 0 0 53 22 28
0.0366368 0.0958533 -0.690512 0 0 0 58 26 29
0.0375511 0.0941994 -0.690271 0 0 0 62 31 29
0.0399885 0.0923692 -0.689654 0 0 0 61 32 26
0.0409939 0.0907144 -0.689391 0 0 0 60 33 24
0.0426133 0.0889932 -0.688977 0 0 0 58 36 25
0.0438234 0.087324 -0.688663 0 0 0 61 43 31
0.0442151 0.08575 -0.688552 0 0 0 53 36 26
0.0448114 0.0841551 -0.688391 0 0 0 22 5 0
0.0468401 0.0824092 -0.687875 0 0 0 20 1 0
0.048255 0.0807354 -0.687511 0 0 0 19 0 0
0.0500791 0.0790245 -0.687046 0 0 0 32 3 8
0.052722 0.0772373 -0.686378 0 0 0 55 22 29
0.0549554 0.0755006 -0.685812 0 0 0 69 32 39
0.0563706 0.0738523 -0.685449 0 0 0 80 41 42
0.0590136 0.0720914 -0.684781 0 0 0 89 49 47
0.061043 0.070398 -0.684266 0 0 0 98 58 56
0.0610259 0.0689011 -0.684256 0 0 0 101 63 60
0.062032 0.0673116 -0.683994 0 0 0 105 67 64
0.0620149 0.0658166 -0.683985 0 0 0 110 75 71
0.0634304 0.0641972 -0.683621 0 0 0 115 82 75
0.0640274 0.0626526 -0.68346 0 0 0 116 86 76
0.0660571 0.0609911 -0.682945 0 0 0 119 91 79
0.0680867 0.0593372 -0.682429 0 0 0 112 89 75
0.0701165 0.0576907 -0.681914 0 0 0 100 78 65
0.0700996 0.0562107 -0.681905 0 0 0 74 54 45
0.070799 0.0546764 -0.681719 0 0 0 46 27 21
0.0733407 0.0530083 -0.681077 0 0 0 20 2 0
0.0757802 0.051357 -0.680461 0 0 0 11 0 0
0.0800619 0.0495852 -0.67939 0 0 0 31 9 0
0.0822968 0.0479693 -0.678824 0 0 0 72 39 0
0.0833038 0.0464436 -0.678562 0 0 0 126 90 38
0.0832872 0.044988 -0.678553 0 0 0 144 112 73
0.0840894 0.0434808 -0.678342 0 0 0 135 108 81
0.0842774 0.0420142 -0.678282 0 0 0 128 104 92
0.0842609 0.0405605 -0.678273 0 0 0 136 102 101
0.0846537 0.0390832 -0.678163 0 0 0 131 76 81
0.0858656 0.0375618 -0.67785 0 0 0 135 74 73
0.0860538 0.0361001 -0.67779 0 0 0 184 131 115
0.0866515 0.0346178 -0.67763 0 0 0 219 147 135
0.0874539 0.0331275 -0.677418 0 0 0 185 67 79
0.0871302 0.0316946 -0.677485 0 0 0 166 25 44
0.086909 0.0302558 -0.677527 0 0 0 176 34 46
0.086483 0.0288255 -0.677619 0 0 0 187 53 60
0.0864664 0.0273761 -0.67761 0 0 0 197 81 90
0.082457 0.0260904 -0.678586 0 0 0 236 145 150
0.0800857 0.0247259 -0.679158 0 0 0 218 159 153
0.0777141 0.0233528 -0.67973 0 0 0 223 183 173
0.0764688 0.0219311 -0.680024 0 0 0 219 180 173
0.0748139 0.0205187 -0.680419 0 0 0 201 166 172
0.0745924 0.0190546 -0.68046 0 0 0 174 145 173
0.071299 0.017682 -0.681259 0 0 0 135 113 151
0.0664257 0.0163418 -0.682448 0 0 0 48 37 71
0.0655312 0.0148791 -0.682656 0 0 0 14 6 30
0.0650021 0.0134042 -0.682773 0 0 0 6 0 7
0.0640635 0.0119366 -0.68299 0 0 0 17 3 0
0.0609745 0.0105106 -0.683739 0 0 0 26 3 0
0.0604454 0.00902459 -0.683856 0 0 0 50 20 0
0.0597115 0.00754023 -0.684023 0 0 0 85 50 18
0.0594896 0.00604539 -0.684064 0 0 0 99 63 31
0.0594725 0.00454702 -0.684055 0 0 0 100 65 45
0.0552677 0.00309762 -0.685078 0 0 0 108 70 67
0.0543175 0.00160078 -0.685299 0 0 0 120 79 93
0.0512279 0.000117702 -0.686046 0 0 0 121 82 101
0.0499815 -0.00138805 -0.68634 0 0 0 120 83 100
0.0483254 -0.00289652 -0.686734 0 0 0 115 81 95
0.0468741 -0.00441151 -0.687078 0 0 0 116 84 97
0.0458326 -0.00593204 -0.687321 0 0 0 122 91 106
0.0449957 -0.0074561 -0.687514 0 0 0 131 98 117
0.043954 -0.00898375 -0.687756 0 0 0 135 102 119
0.0434244 -0.0105127 -0.687873 0 0 0 112 80 93
0.0420753 -0.012049 -0.688192 0 0 0 91 58 67
0.0416482 -0.0135823 -0.688283 0 0 0 88 58 58
0.039582 -0.015134 -0.688778 0 0 0 66 36 34
0.0391548 -0.0166734 -0.688869 0 0 0 36 8 7
0.0385225 -0.0182171 -0.689011 0 0 0 25 0 2
0.0138278 -0.0280476 -0.695008 0 0 0 140 114 127
0.0132975 -0.0296426 -0.695124 0 0 0 138 111 120
0.0127672 -0.0312394 -0.69524 0 0 0 139 109 121
0.0127491 -0.0328226 -0.69523 0 0 0 130 102 117
0.0106818 -0.0344718 -0.695725 0 0 0 123 95 109
0.00656493 -0.0361984 -0.696724 0 0 0 117 91 94
0.0070591 -0.0377744 -0.696588 0 0 0 120 95 91
0.00652855 -0.0393872 -0.696704 0 0 0 129 104 99
0.00651037 -0.0409816 -0.696694 0 0 0 96 67 69
0.00649217 -0.042576 -0.696684 0 0 0 49 16 33
0.00852358 -0.0440818 -0.69617 0 0 0 58 24 40
0.00850546 -0.0456725 -0.69616 0 0 0 59 25 23
0.0339117 0.0991974 -0.689704 0 0 0 50 26 24
0.0361977 0.0973673 -0.689129 0 0 0 53 25 22
0.036948 0.0957325 -0.68893 0 0 0 57 28 24
0.03734 0.0941434 -0.68882 0 0 0 60 31 23
0.0391654 0.0923867 -0.688357 0 0 0 62 34 22
0.040991 0.0906368 -0.687895 0 0 0 62 36 23
0.0426119 0.088917 -0.687483 0 0 0 59 37 23
0.0430041 0.0873415 -0.687372 0 0 0 57 39 27
0.0440105 0.0856994 -0.687111 0 0 0 50 33 23
0.0446076 0.0841057 -0.686951 0 0 0 20 5 0
0.0460239 0.0824266 -0.686589 0 0 0 19 1 0
0.0478497 0.0807097 -0.686127 0 0 0 18 0 0
0.0494708 0.0790207 -0.685715 0 0 0 32 5 10
0.052526 0.0771922 -0.684951 0 0 0 52 21 29
0.0543521 0.0754974 -0.684489 0 0 0 68 30 41
0.0561784 0.0738094 -0.684027 0 0 0 74 31 40
0.0588238 0.0720495 -0.683363 0 0 0 83 38 45
0.0602408 0.070415 -0.683002 0 0 0 88 43 50
0.0606334 0.0688804 -0.682892 0 0 0 87 44 51
0.0612308 0.0673287 -0.682732 0 0 0 87 48 53
0.0612137 0.0658337 -0.682722 0 0 0 90 54 58
0.0636549 0.0641253 -0.68211 0 0 0 94 62 63
0.0652767 0.0624956 -0.681698 0 0 0 96 66 66
0.0671036 0.0608548 -0.681236 0 0 0 99 73 72
0.0674965 0.0593374 -0.681126 0 0 0 88 64 64
0.0693233 0.0577075 -0.680665 0 0 0 75 53 56
0.0697161 0.0561958 -0.680555 0 0 0 54 35 41
0.0703139 0.0546699 -0.680395 0 0 0 35 15 27
0.0735752 0.0529494 -0.679581 0 0 0 19 0 19
0.0766317 0.0512556 -0.678818 0 0 0 15 0 18
0.0789712 0.0496235 -0.678231 0 0 0 31 8 14
0.0815157 0.0479859 -0.677594 0 0 0 81 52 18
0.0827285 0.0464465 -0.677283 0 0 0 121 90 35
0.0831217 0.0449648 -0.677173 0 0 0 137 111 52
0.0835149 0.0434845 -0.677064 0 0 0 129 108 55
0.0834984 0.0420308 -0.677055 0 0 0 117 98 58
0.0836867 0.0405649 -0.676995 0 0 0 123 95 73
0.0851047 0.0390291 -0.676634 0 0 0 118 67 64
0.0857029 0.0375442 -0.676475 0 0 0 127 65 68
0.0863011 0.0360615 -0.676315 0 0 0 191 131 121
0.0862846 0.034613 -0.676306 0 0 0 209 119 128
0.0872928 0.0331132 -0.676045 0 0 0 175 31 82
0.0868664 0.0316864 -0.676137 0 0 0 177 3 72
0.0863375 0.0302628 -0.676253 0 0 0 181 5 67
0.0855012 0.0288512 -0.676445 0 0 0 182 16 64
0.0835376 0.0274848 -0.676913 0 0 0 177 33 58
0.0806516 0.026149 -0.677607 0 0 0 206 92 100
0.0787903 0.0247627 -0.67805 0 0 0 214 145 138
0.0769288 0.0233696 -0.678493 0 0 0 223 176 166
0.0758872 0.0219406 -0.678735 0 0 0 216 171 165
0.0754605 0.0204872 -0.678826 0 0 0 194 156 155
0.073804 0.0190714 -0.679218 0 0 0 166 136 146
0.0716348 0.017665 -0.679736 0 0 0 140 119 136
0.0656294 0.0163588 -0.681194 0 0 0 55 44 61
0.0650755 0.0148871 -0.681316 0 0 0 12 8 23
0.064717 0.0134086 -0.68139 0 0 0 2 0 10
0.0633821 0.011951 -0.681704 0 0 0 7 1 5
0.0612662 0.0105049 -0.682208 0 0 0 18 0 0
0.0601265 0.00903247 -0.682474 0 0 0 29 5 0
0.0601095 0.00753667 -0.682464 0 0 0 54 24 0
0.0595067 0.00604988 -0.682598 0 0 0 81 45 21
0.0586694 0.00456411 -0.68279 0 0 0 94 57 38
0.0544931 0.00311441 -0.683798 0 0 0 100 62 51
0.0530994 0.00162202 -0.684126 0 0 0 96 54 56
0.0504167 0.000134963 -0.684769 0 0 0 106 65 71
0.048144 -0.0013644 -0.685311 0 0 0 115 76 79
0.0473578 -0.00287853 -0.68549 0 0 0 116 82 83
0.0466285 -0.00439562 -0.685655 0 0 0 120 88 89
0.0450163 -0.00591467 -0.686035 0 0 0 127 96 101
0.0445888 -0.00743825 -0.686126 0 0 0 124 94 102
0.0443664 -0.00896273 -0.686167 0 0 0 115 84 92
0.0441439 -0.010488 -0.686207 0 0 0 91 60 65
0.0427935 -0.0120214 -0.686524 0 0 0 71 41 41
0.0420582 -0.0135545 -0.68669 0 0 0 69 38 33
0.0406053 -0.0150976 -0.687031 0 0 0 51 21 13
0.0393281 -0.0166438 -0.68733 0 0 0 36 7 0
0.0376992 -0.0181995 -0.687714 0 0 0 28 0 0
0.0150135 -0.029556 -0.693162 0 0 0 140 112 126
0.0143118 -0.0311531 -0.693319 0 0 0 134 106 121
0.0129263 -0.0327734 -0.693643 0 0 0 127 99 121
0.0111988 -0.0344097 -0.694051 0 0 0 122 97 116
0.00810366 -0.0360988 -0.694793 0 0 0 114 93 100
0.00876929 -0.0376643 -0.694616 0 0 0 116 95 92
0.00157122 -0.0395236 -0.69636 0 0 0 123 103 92
0.00155297 -0.0411256 -0.69635 0 0 0 93 68 64
0.00768924 -0.042473 -0.694837 0 0 0 52 20 35
0.0107484 -0.0439309 -0.694075 0 0 0 63 26 43
0.0107304 -0.0455159 -0.694065 0 0 0 62 24 21
0.0361754 0.10037 -0.687659 0 0 0 53 32 27
0.0361578 0.09883 -0.687649 0 0 0 52 31 26
0.0359352 0.0973153 -0.68769 0 0 0 54 29 22
0.0365326 0.0957002 -0.68753 0 0 0 56 30 17
0.0375398 0.0940383 -0.68727 0 0 0 58 32 15
0.0387523 0.0923559 -0.686961 0 0 0 60 35 15
0.0407847 0.0905829 -0.686451 0 0 0 59 37 16
0.0422022 0.0888876 -0.686091 0 0 0 58 37 20
0.0423897 0.0873359 -0.686032 0 0 0 63 45 31
0.0431922 0.0857168 -0.685822 0 0 0 55 38 30
0.0444049 0.0840562 -0.685513 0 0 0 27 12 7
0.0452076 0.082444 -0.685303 0 0 0 21 3 3
0.0470352 0.080727 -0.684844 0 0 0 18 0 0
0.049068 0.0789957 -0.684334 0 0 0 33 8 12
0.0513061 0.077251 -0.683775 0 0 0 49 20 25
0.053544 0.0755146 -0.683216 0 0 0 64 29 35
0.0555771 0.0738065 -0.682706 0 0 0 71 29 31
0.0584303 0.0720273 -0.681997 0 0 0 78 32 34
0.0594386 0.0704321 -0.681738 0 0 0 81 36 39
0.0602416 0.0688596 -0.681529 0 0 0 80 40 41
0.0604296 0.0673457 -0.68147 0 0 0 83 44 45
0.0618478 0.0657236 -0.68111 0 0 0 87 53 54
0.0632662 0.0641068 -0.680751 0 0 0 90 60 60
0.0648897 0.0624777 -0.680342 0 0 0 89 63 62
0.0665133 0.0608547 -0.679933 0 0 0 79 55 55
0.0681369 0.0592377 -0.679524 0 0 0 59 39 41
0.0685301 0.0577244 -0.679415 0 0 0 40 21 27
0.0695386 0.0561649 -0.679156 0 0 0 23 5 17
0.0711622 0.0545625 -0.678747 0 0 0 18 0 18
0.0740168 0.0528752 -0.678039 0 0 0 16 0 21
0.076461 0.051228 -0.67743 0 0 0 15 0 26
0.078803 0.0495969 -0.676847 0 0 0 30 7 23
0.0807346 0.0480026 -0.676363 0 0 0 90 64 41
0.082769 0.0464085 -0.675855 0 0 0 114 90 42
0.0829576 0.0449415 -0.675795 0 0 0 128 107 50
0.082941 0.0434882 -0.675786 0 0 0 120 104 45
0.0835397 0.0419972 -0.675627 0 0 0 107 94 42
0.0843437 0.0404964 -0.675419 0 0 0 107 85 48
0.0851477 0.0389985 -0.67521 0 0 0 99 53 40
0.0855413 0.0375265 -0.675101 0 0 0 115 56 50
0.0858325 0.0360615 -0.675017 0 0 0 189 123 107
0.086534 0.0345763 -0.674833 0 0 0 196 97 102
0.0871329 0.0330988 -0.674674 0 0 0 167 11 72
0.0862958 0.031693 -0.674865 0 0 0 190 2 89
0.0857665 0.0302698 -0.674981 0 0 0 193 0 83
0.0847242 0.0288677 -0.675221 0 0 0 190 5 72
0.0821431 0.0275277 -0.675836 0 0 0 178 16 53
0.0797673 0.0261699 -0.676401 0 0 0 195 71 82
0.0778015 0.0247874 -0.676866 0 0 0 219 144 139
0.0757331 0.0234016 -0.677355 0 0 0 218 170 158
0.0748957 0.0219646 -0.677546 0 0 0 205 157 153
0.0752893 0.0204832 -0.677437 0 0 0 186 144 146
0.0732208 0.0190816 -0.677927 0 0 0 159 127 132
0.0710496 0.0176757 -0.678441 0 0 0 129 106 114
0.0690834 0.016256 -0.678906 0 0 0 57 45 57
0.0665749 0.0148435 -0.679502 0 0 0 19 15 30
0.0656787 0.0133824 -0.679707 0 0 0 0 0 17
0.0639028 0.0119381 -0.680125 0 0 0 1 0 11
0.0621757 0.0104862 -0.680532 0 0 0 15 4 8
0.0612304 0.00901328 -0.680748 0 0 0 18 0 0
0.0605684 0.00753206 -0.680895 0 0 0 28 2 0
0.0607566 0.00603542 -0.680836 0 0 0 54 22 7
0.0586873 0.00457009 -0.681325 0 0 0 76 40 26
0.0555918 0.00310927 -0.682064 0 0 0 87 49 38
0.0519831 0.00164227 -0.682927 0 0 0 86 45 39
0.0497425 0.000151121 -0.683458 0 0 0 98 57 51
0.0483569 -0.00135348 -0.683781 0 0 0 111 74 66
0.0477532 -0.00286652 -0.683914 0 0 0 117 84 75
0.0470395 -0.00438143 -0.684073 0 0 0 121 92 86
0.0454315 -0.00589822 -0.68445 0 0 0 122 94 90
0.0447984 -0.00741976 -0.68459 0 0 0 105 79 80
0.0443706 -0.00894295 -0.68468 0 0 0 83 57 60
0.0441479 -0.0104667 -0.684721 0 0 0 62 36 37
0.0431042 -0.0119965 -0.68496 0 0 0 50 22 21
0.0428816 -0.0135233 -0.685001 0 0 0 46 17 13
0.0421455 -0.015056 -0.685166 0 0 0 33 4 0
0.0421282 -0.0165827 -0.685156 0 0 0 32 3 0
0.014168 -0.0295381 -0.69183 0 0 0 141 110 125
0.0151767 -0.0310863 -0.691571 0 0 0 131 102 120
0.0131054 -0.0327242 -0.692059 0 0 0 122 96 123
0.0103497 -0.0343916 -0.692713 0 0 0 123 99 125
0.00742263 -0.0360749 -0.693409 0 0 0 117 95 108
0.0084312 -0.0376278 -0.69315 0 0 0 117 97 98
0.000712713 -0.0395054 -0.695008 0 0 0 119 99 88
0.000694431 -0.0411073 -0.694998 0 0 0 93 70 62
0.00683676 -0.0424549 -0.693494 0 0 0 52 20 33
0.00989895 -0.0439128 -0.692737 0 0 0 57 21 35
0.00988088 -0.0454978 -0.692727 0 0 0 59 21 18
0.03535 0.100388 -0.686359 0 0 0 54 33 30
0.0363583 0.0987193 -0.686101 0 0 0 53 34 28
0.0373665 0.0970547 -0.685842 0 0 0 55 33 20
0.0373489 0.0955184 -0.685833 0 0 0 55 32 14
0.0375366 0.0939576 -0.685773 0 0 0 57 33 7
0.0389555 0.0922526 -0.685416 0 0 0 60 36 8
0.0414003 0.0904338 -0.68481 0 0 0 58 36 12
0.0416906 0.08887 -0.684726 0 0 0 54 36 16
0.0423913 0.0872611 -0.684543 0 0 0 67 49 37
0.0423739 0.0857342 -0.684533 0 0 0 58 40 36
0.0442035 0.0840067 -0.684076 0 0 0 31 15 16
0.0445965 0.0824394 -0.683967 0 0 0 20 4 7
0.0466311 0.0807013 -0.683461 0 0 0 17 0 1
0.0484608 0.0789918 -0.683005 0 0 0 30 8 11
0.0511115 0.0772059 -0.68235 0 0 0 44 18 19
0.0535569 0.0754502 -0.681744 0 0 0 59 28 23
0.055592 0.0737435 -0.681238 0 0 0 71 34 18
0.0586534 0.0719461 -0.680484 0 0 0 74 36 17
0.0586363 0.0704492 -0.680474 0 0 0 73 36 18
0.0595428 0.0688672 -0.680242 0 0 0 68 35 18
0.0598336 0.0673442 -0.680158 0 0 0 65 33 20
0.0608428 0.0657588 -0.6799 0 0 0 60 32 20
0.0628783 0.0640882 -0.679394 0 0 0 50 26 14
0.0647087 0.0624425 -0.678938 0 0 0 41 21 10
0.0657181 0.0608717 -0.678681 0 0 0 33 14 7
0.0669327 0.0592879 -0.678373 0 0 0 24 6 2
0.067737 0.0577413 -0.678166 0 0 0 17 1 2
0.0687464 0.0561818 -0.677908 0 0 0 14 0 5
0.0703718 0.0545794 -0.677502 0 0 0 19 1 15
0.073229 0.052892 -0.676798 0 0 0 18 0 19
0.0763943 0.0511929 -0.676019 0 0 0 16 0 21
0.0781226 0.0496064 -0.675588 0 0 0 31 10 25
0.0801588 0.0480051 -0.675083 0 0 0 98 76 65
0.0824006 0.0463978 -0.674528 0 0 0 111 91 64
0.0834105 0.0448784 -0.674271 0 0 0 110 95 62
0.0837019 0.0434079 -0.674187 0 0 0 101 89 49
0.084404 0.0419135 -0.674004 0 0 0 92 86 38
0.0846955 0.040446 -0.673921 0 0 0 90 73 29
0.0851923 0.0389679 -0.673788 0 0 0 83 44 15
0.0864077 0.0374517 -0.673481 0 0 0 121 64 37
0.0865965 0.0359952 -0.673422 0 0 0 181 113 74
0.0867854 0.0345394 -0.673364 0 0 0 193 91 76
0.0869743 0.0330844 -0.673305 0 0 0 165 8 51
0.0859311 0.0316897 -0.673544 0 0 0 191 3 77
0.0852985 0.030272 -0.673684 0 0 0 191 0 74
0.0844606 0.0288613 -0.673873 0 0 0 189 2 70
0.0819797 0.0275179 -0.674459 0 0 0 178 13 56
0.0789855 0.0261865 -0.675169 0 0 0 202 73 95
0.0766071 0.0248201 -0.67573 0 0 0 218 143 138
0.0745367 0.0234336 -0.676217 0 0 0 210 162 152
0.0732877 0.0220105 -0.676505 0 0 0 185 136 142
0.0734763 0.0205345 -0.676446 0 0 0 162 118 131
0.0724327 0.0190984 -0.676685 0 0 0 144 108 120
0.0708184 0.0176757 -0.677061 0 0 0 117 91 104
0.0684624 0.0162681 -0.677617 0 0 0 68 53 72
0.0665139 0.0148411 -0.678074 0 0 0 36 28 52
0.0651766 0.0133922 -0.678383 0 0 0 10 6 33
0.0641327 0.0119317 -0.678621 0 0 0 0 0 20
0.0630886 0.0104675 -0.67886 0 0 0 9 4 11
0.0617878 0.00900447 -0.67916 0 0 0 11 1 0
0.0617708 0.00751464 -0.679151 0 0 0 15 0 0
0.0609835 0.00603666 -0.679328 0 0 0 30 5 1
0.0503011 0.00015733 -0.68185 0 0 0 87 50 34
0.0491882 -0.00134645 -0.682105 0 0 0 88 55 38
0.0489948 -0.0028583 -0.682138 0 0 0 84 55 41
0.0469964 -0.00436611 -0.682606 0 0 0 76 49 38
0.0458491 -0.00588181 -0.682869 0 0 0 67 44 36
0.0448045 -0.00740153 -0.683107 0 0 0 56 35 32
0.0445817 -0.00892262 -0.683147 0 0 0 44 22 24
0.0431262 -0.0104503 -0.683484 0 0 0 41 19 22
0.0429032 -0.0119751 -0.683524 0 0 0 34 9 13
0.0426804 -0.0135007 -0.683564 0 0 0 32 6 9
0.0420465 -0.0150312 -0.683703 0 0 0 24 0 0
0.0418922 -0.0165583 -0.683727 0 0 0 27 0 2
0.0112133 -0.0343186 -0.690963 0 0 0 128 98 132
0.0101676 -0.0359347 -0.691201 0 0 0 120 95 116
0.00758022 -0.0376097 -0.691809 0 0 0 120 97 103
0.00550669 -0.0392748 -0.692294 0 0 0 115 95 84
0.00446079 -0.0409068 -0.692532 0 0 0 95 71 61
-0.000182336 -0.0426909 -0.693635 0 0 0 52 21 27
0.0365608 0.0986085 -0.684555 0 0 0 53 34 28
0.0369539 0.0970216 -0.684447 0 0 0 54 35 20
0.0365256 0.095536 -0.684536 0 0 0 54 34 10
0.0373297 0.0939015 -0.684329 0 0 0 56 35 4
0.0395715 0.0921009 -0.683776 0 0 0 60 37 5
0.0406836 0.0904394 -0.683495 0 0 0 58 37 8
0.0415904 0.0888054 -0.683263 0 0 0 53 35 13
0.041573 0.0872785 -0.683254 0 0 0 57 39 27
0.0434044 0.0855476 -0.6828 0 0 0 48 33 30
0.0435923 0.0840018 -0.682741 0 0 0 25 10 13
0.0452182 0.0823034 -0.682336 0 0 0 15 0 5
0.0464333 0.080654 -0.682031 0 0 0 13 0 0
0.0480593 0.0789667 -0.681626 0 0 0 29 9 10
0.0505072 0.0772023 -0.681025 0 0 0 43 19 15
0.0535713 0.0753857 -0.680275 0 0 0 58 32 19
0.0551975 0.0737206 -0.679871 0 0 0 57 27 3
0.0578512 0.0719631 -0.67922 0 0 0 62 31 3
0.0581423 0.0704373 -0.679137 0 0 0 66 36 12
0.0588442 0.0688748 -0.678955 0 0 0 64 37 16
0.0596489 0.0673056 -0.678748 0 0 0 62 36 19
0.0604537 0.0657395 -0.678541 0 0 0 52 30 16
0.0631076 0.0640162 -0.67789 0 0 0 35 15 4
0.0643234 0.0624246 -0.677585 0 0 0 20 3 0
0.0657448 0.0608204 -0.677231 0 0 0 12 0 0
0.0669607 0.0592382 -0.676925 0 0 0 14 0 0
0.0679711 0.0576767 -0.676669 0 0 0 17 3 3
0.0698035 0.0560554 -0.676216 0 0 0 15 0 7
0.0704031 0.054534 -0.676059 0 0 0 18 0 14
0.0734686 0.0528329 -0.67531 0 0 0 14 0 14
0.0760206 0.05118 -0.674685 0 0 0 14 0 17
0.0773397 0.049623 -0.674355 0 0 0 37 16 31
0.0793779 0.0480218 -0.673853 0 0 0 103 84 80
0.0816218 0.0464143 -0.673301 0 0 0 111 93 79
0.0827355 0.0448883 -0.673021 0 0 0 96 85 67
0.0835411 0.0433857 -0.672815 0 0 0 79 72 46
0.0840383 0.0419049 -0.672682 0 0 0 78 75 34
0.0844329 0.0404321 -0.672575 0 0 0 78 63 22
0.0856495 0.0389137 -0.67227 0 0 0 78 39 10
0.0860441 0.0374454 -0.672162 0 0 0 136 77 47
0.0862331 0.0359896 -0.672104 0 0 0 187 113 66
0.0862166 0.0345453 -0.672095 0 0 0 201 95 69
0.0862002 0.0331009 -0.672086 0 0 0 176 21 52
0.0847449 0.031726 -0.672422 0 0 0 197 18 76
0.0841118 0.0303076 -0.67256 0 0 0 184 0 62
0.0838897 0.0288687 -0.672601 0 0 0 181 2 58
0.0818175 0.0275081 -0.673084 0 0 0 174 14 50
0.0776898 0.0262242 -0.674061 0 0 0 198 71 88
0.075309 0.0248569 -0.674618 0 0 0 207 134 127
0.0727227 0.0234887 -0.675225 0 0 0 199 152 144
0.0716781 0.0220564 -0.675462 0 0 0 164 116 128
0.0714557 0.0205927 -0.675502 0 0 0 131 88 108
0.0712334 0.0191283 -0.675542 0 0 0 123 86 103
0.0695718 0.0177062 -0.675927 0 0 0 109 80 98
0.0688354 0.0162521 -0.67609 0 0 0 84 64 89
0.0668654 0.0148279 -0.676549 0 0 0 51 38 68
0.0662318 0.0133637 -0.676687 0 0 0 22 16 50
0.0651869 0.0119067 -0.676924 0 0 0 2 0 28
0.0643476 0.0104416 -0.677112 0 0 0 1 0 12
0.0643306 0.00895789 -0.677102 0 0 0 6 1 7
0.0643137 0.00747415 -0.677093 0 0 0 12 1 5
0.0642968 0.00599042 -0.677084 0 0 0 17 0 2
0.0498342 0.000171789 -0.680493 0 0 0 67 34 15
0.0487888 -0.00133177 -0.680729 0 0 0 75 46 28
0.0484778 -0.00284234 -0.68079 0 0 0 76 50 35
0.0475792 -0.00435245 -0.680992 0 0 0 59 37 24
0.0460635 -0.00586529 -0.681341 0 0 0 40 21 14
0.0446067 -0.00738354 -0.681676 0 0 0 32 17 12
0.0441779 -0.00890409 -0.681765 0 0 0 31 15 16
0.0429267 -0.01043 -0.68205 0 0 0 30 14 17
0.0422923 -0.0119564 -0.682188 0 0 0 27 8 14
0.0422749 -0.0134799 -0.682179 0 0 0 29 6 16
0.0416405 -0.0150097 -0.682317 0 0 0 21 0 6
0.0414173 -0.0165368 -0.682357 0 0 0 24 0 10
0.0186667 -0.0277718 -0.6877 0 0 0 142 107 114
0.0176202 -0.0293654 -0.687936 0 0 0 141 106 113
0.0176023 -0.0309335 -0.687927 0 0 0 138 104 120
0.0165558 -0.0325328 -0.688163 0 0 0 136 101 133
0.0117374 -0.0342566 -0.6893 0 0 0 134 100 135
0.00966206 -0.0359051 -0.689782 0 0 0 122 92 116
0.00886017 -0.0375156 -0.68996 0 0 0 122 96 107
0.00649065 -0.0391877 -0.690512 0 0 0 113 90 84
0.00603177 -0.0407933 -0.690607 0 0 0 97 73 63
0.00513181 -0.0424186 -0.690808 0 0 0 53 23 23
0.0378281 0.101434 -0.682787 0 0 0 59 34 29
0.0378106 0.0999017 -0.682777 0 0 0 57 38 34
0.0377932 0.0983692 -0.682767 0 0 0 56 37 31
0.0367477 0.0969632 -0.683003 0 0 0 56 37 22
0.0367303 0.0954288 -0.682993 0 0 0 57 35 12
0.0377407 0.0937717 -0.682739 0 0 0 57 33 5
0.0398818 0.0919854 -0.682214 0 0 0 59 36 5
0.0405839 0.0903735 -0.682033 0 0 0 59 38 9
0.0407721 0.0888228 -0.681974 0 0 0 56 35 14
0.0407547 0.087296 -0.681964 0 0 0 55 39 26
0.0427934 0.0855423 -0.681464 0 0 0 40 25 22
0.0444208 0.0838408 -0.681063 0 0 0 20 5 8
0.0458427 0.0821672 -0.68071 0 0 0 12 0 2
0.0482929 0.0803911 -0.680112 0 0 0 18 2 3
0.0488926 0.0788146 -0.679955 0 0 0 26 8 6
0.0509314 0.0770948 -0.679455 0 0 0 37 19 9
0.0531762 0.075362 -0.678907 0 0 0 53 31 17
0.0545983 0.0737177 -0.678554 0 0 0 52 30 9
0.0568433 0.0719999 -0.678005 0 0 0 53 28 6
0.0573404 0.0704544 -0.677873 0 0 0 50 27 9
0.0582487 0.0688729 -0.677643 0 0 0 40 21 7
0.0588485 0.0673227 -0.677487 0 0 0 29 10 3
0.060888 0.0656475 -0.676987 0 0 0 26 8 4
0.0633389 0.0639442 -0.67639 0 0 0 21 5 5
0.0647617 0.062337 -0.676037 0 0 0 13 0 1
0.0661844 0.060735 -0.675685 0 0 0 13 0 3
0.0672986 0.0591634 -0.675406 0 0 0 14 0 6
0.0686186 0.0575795 -0.675079 0 0 0 15 0 9
0.0696302 0.0560244 -0.674824 0 0 0 17 1 12
0.0708476 0.0544575 -0.674521 0 0 0 18 0 16
0.0730933 0.0528193 -0.673973 0 0 0 15 0 15
0.0754421 0.0511819 -0.6734 0 0 0 26 4 25
0.0765568 0.0496397 -0.673122 0 0 0 44 21 37
0.078597 0.0480384 -0.672623 0 0 0 95 75 74
0.0814602 0.0463899 -0.671928 0 0 0 100 83 75
0.0827809 0.0448516 -0.6716 0 0 0 86 76 67
0.0831758 0.0433764 -0.671493 0 0 0 81 73 60
0.0840849 0.0418713 -0.671263 0 0 0 78 71 43
0.0848913 0.0403756 -0.671058 0 0 0 82 62 35
0.0852863 0.0389066 -0.670951 0 0 0 90 44 31
0.0854755 0.0374504 -0.670893 0 0 0 130 63 46
0.0854591 0.0360061 -0.670884 0 0 0 192 110 72
0.0854426 0.0345617 -0.670875 0 0 0 185 75 50
0.0854261 0.0331174 -0.670866 0 0 0 175 27 49
0.0843809 0.0317226 -0.671102 0 0 0 181 14 58
0.0833357 0.0303241 -0.671338 0 0 0 173 6 50
0.0831134 0.0288852 -0.671378 0 0 0 165 4 38
0.0822739 0.0274719 -0.671564 0 0 0 161 14 30
0.0783478 0.0261819 -0.672485 0 0 0 169 53 53
0.0763764 0.0248012 -0.672941 0 0 0 187 119 108
0.0747135 0.0234019 -0.673324 0 0 0 161 118 112
0.0727419 0.0220075 -0.67378 0 0 0 144 100 117
0.072931 0.0205334 -0.673721 0 0 0 143 100 127
0.0722968 0.0190862 -0.673859 0 0 0 126 91 111
0.0708396 0.0176613 -0.674193 0 0 0 118 89 109
0.0699997 0.0162139 -0.674379 0 0 0 99 74 103
0.0689538 0.0147689 -0.674615 0 0 0 72 55 89
0.0677022 0.0133252 -0.674899 0 0 0 43 32 72
0.0657302 0.0118933 -0.675354 0 0 0 19 13 47
0.0650959 0.0104264 -0.675492 0 0 0 5 4 22
0.0645645 0.00895523 -0.675605 0 0 0 6 4 15
0.0635185 0.00749108 -0.67584 0 0 0 7 1 11
0.0635016 0.00600734 -0.675831 0 0 0 9 0 6
0.0479613 -0.0028264 -0.679443 0 0 0 32 12 1
0.0474294 -0.00433692 -0.679556 0 0 0 25 8 0
0.0462799 -0.00584882 -0.679816 0 0 0 18 5 0
0.0451647 -0.00736481 -0.680067 0 0 0 18 7 5
0.0437751 -0.00888559 -0.680383 0 0 0 24 12 14
0.0425225 -0.0104107 -0.680667 0 0 0 19 6 13
0.0420934 -0.011935 -0.680755 0 0 0 22 6 17
0.0416643 -0.0134608 -0.680844 0 0 0 24 3 18
0.0408234 -0.0149923 -0.68103 0 0 0 20 0 15
0.0406 -0.0165194 -0.681069 0 0 0 38 13 32
0.0240403 -0.0244913 -0.684931 0 0 0 132 96 108
0.0240226 -0.0260463 -0.684922 0 0 0 135 100 104
0.020916 -0.0276776 -0.685645 0 0 0 139 103 105
0.0184958 -0.029302 -0.686205 0 0 0 143 106 113
0.0177916 -0.0308865 -0.686358 0 0 0 142 104 119
0.016744 -0.0324838 -0.686593 0 0 0 138 99 126
0.0122643 -0.0341947 -0.687642 0 0 0 135 98 129
0.00984358 -0.0358522 -0.688202 0 0 0 129 95 119
0.00896745 -0.0374634 -0.688395 0 0 0 125 94 109
0.00688994 -0.0391228 -0.688874 0 0 0 120 91 93
0.00648566 -0.0407239 -0.688956 0 0 0 94 66 63
0.00582393 -0.042337 -0.689098 0 0 0 51 23 20
0.0370243 0.102984 -0.681502 0 0 0 59 32 21
0.0370068 0.101452 -0.681493 0 0 0 58 34 24
0.0369893 0.0999192 -0.681483 0 0 0 55 35 28
0.0369718 0.0983867 -0.681473 0 0 0 53 34 27
0.0366604 0.0968903 -0.681534 0 0 0 55 33 19
0.0359079 0.0954463 -0.681698 0 0 0 55 33 12
0.0371252 0.0937646 -0.681396 0 0 0 56 32 6
0.0394742 0.0919545 -0.680826 0 0 0 59 35 9
0.0399712 0.0903671 -0.680694 0 0 0 62 38 14
0.0399538 0.0888402 -0.680685 0 0 0 58 37 18
0.0399364 0.0873134 -0.680675 0 0 0 52 36 23
0.0438292 0.0853556 -0.67974 0 0 0 36 23 17
0.0454583 0.0836574 -0.679341 0 0 0 17 6 4
0.0472934 0.0819433 -0.678893 0 0 0 11 0 0
0.0480995 0.0803437 -0.678688 0 0 0 17 3 2
0.0486997 0.0787683 -0.678532 0 0 0 22 7 2
0.050329 0.0770911 -0.678133 0 0 0 30 13 5
0.0525759 0.0753587 -0.677588 0 0 0 39 23 10
0.0544112 0.0736746 -0.67714 0 0 0 40 23 7
0.0562468 0.0719973 -0.676692 0 0 0 36 20 5
0.0566414 0.0704618 -0.676586 0 0 0 33 16 6
0.0578593 0.0688521 -0.676284 0 0 0 24 9 4
0.0584598 0.0673026 -0.676129 0 0 0 15 1 0
0.0596778 0.0657008 -0.675827 0 0 0 14 2 4
0.0621312 0.0639967 -0.675233 0 0 0 15 2 9
0.0639671 0.0623539 -0.674786 0 0 0 11 0 7
0.065597 0.0607349 -0.674387 0 0 0 13 0 9
0.067227 0.0591219 -0.673988 0 0 0 13 0 9
0.0686513 0.0575311 -0.673638 0 0 0 14 0 8
0.0704876 0.0559138 -0.673191 0 0 0 16 0 10
0.0704708 0.0544432 -0.673181 0 0 0 22 5 15
0.0723069 0.052836 -0.672734 0 0 0 26 6 18
0.074761 0.0511912 -0.672141 0 0 0 37 15 28
0.0761856 0.0496275 -0.671791 0 0 0 51 30 37
0.078022 0.0480409 -0.671344 0 0 0 90 71 65
0.0802704 0.0464338 -0.670799 0 0 0 88 71 61
0.0817982 0.0448814 -0.670425 0 0 0 73 63 54
0.0821935 0.0434058 -0.670318 0 0 0 74 66 55
0.0833095 0.0418878 -0.670042 0 0 0 77 66 48
0.0841166 0.0403921 -0.669838 0 0 0 81 58 42
0.0847179 0.0389112 -0.669683 0 0 0 93 44 40
0.0851133 0.037444 -0.669577 0 0 0 137 67 59
0.0855087 0.0359784 -0.66947 0 0 0 161 74 44
0.0863159 0.0344928 -0.669267 0 0 0 163 55 29
0.0850639 0.0331133 -0.66955 0 0 0 158 20 33
0.0846356 0.0316895 -0.669638 0 0 0 168 17 50
0.0835893 0.0302929 -0.669872 0 0 0 167 15 53
0.0825431 0.0288926 -0.670106 0 0 0 160 12 44
0.0823206 0.0274533 -0.670146 0 0 0 150 14 26
0.0794205 0.0261227 -0.670818 0 0 0 153 45 42
0.0767264 0.0247736 -0.671441 0 0 0 148 84 72
0.0748559 0.0233841 -0.671869 0 0 0 140 97 91
0.0738094 0.0219586 -0.672103 0 0 0 134 92 106
0.0733807 0.0205086 -0.672191 0 0 0 139 99 123
0.0721281 0.0190833 -0.672474 0 0 0 128 96 111
0.0700515 0.0176781 -0.672951 0 0 0 122 94 109
0.0698287 0.0162133 -0.67299 0 0 0 105 81 105
0.0687818 0.0147694 -0.673224 0 0 0 87 68 100
0.0673231 0.0133319 -0.673555 0 0 0 57 42 81
0.0656582 0.0118938 -0.673935 0 0 0 27 20 54
0.0653323 0.0104218 -0.673999 0 0 0 7 5 26
0.0648004 0.00895252 -0.674111 0 0 0 4 4 16
0.0639594 0.00748672 -0.674296 0 0 0 5 3 14
0.0630498 0.00601898 -0.674497 0 0 0 9 4 11
0.0606292 0.00456849 -0.675055 0 0 0 16 6 7
0.0585519 0.0031052 -0.675532 0 0 0 21 6 1
0.047151 -0.00280916 -0.678167 0 0 0 18 1 0
0.0471338 -0.00432103 -0.678157 0 0 0 14 3 0
0.0460862 -0.00583205 -0.678391 0 0 0 16 6 4
0.0450387 -0.00734683 -0.678624 0 0 0 18 10 8
0.0443345 -0.00886439 -0.678777 0 0 0 19 10 13
0.0415697 -0.010394 -0.679415 0 0 0 12 2 10
0.0413233 -0.0119174 -0.679459 0 0 0 7 0 5
0.041077 -0.0134415 -0.679504 0 0 0 10 0 9
0.0410882 -0.014964 -0.679488 0 0 0 30 11 30
0.0232069 -0.0244736 -0.683618 0 0 0 130 97 108
0.0238762 -0.0260129 -0.683447 0 0 0 133 98 102
0.0231714 -0.0275836 -0.683599 0 0 0 136 100 100
0.0200619 -0.0292205 -0.684317 0 0 0 139 103 107
0.0174674 -0.030854 -0.684915 0 0 0 138 100 111
0.0164189 -0.0324504 -0.685147 0 0 0 135 96 115
0.0122783 -0.0341493 -0.686109 0 0 0 133 95 116
0.0103707 -0.0357878 -0.686544 0 0 0 132 100 115
0.00940785 -0.0373995 -0.686756 0 0 0 132 102 112
0.00810143 -0.0390276 -0.68705 0 0 0 127 98 103
0.00830433 -0.0406011 -0.686988 0 0 0 94 68 69
0.00858078 -0.0421709 -0.686908 0 0 0 46 21 17
0.0362029 0.103002 -0.680208 0 0 0 58 32 15
0.0361855 0.101469 -0.680199 0 0 0 56 33 17
0.036168 0.0999367 -0.680189 0 0 0 52 33 19
0.0351207 0.0985326 -0.680422 0 0 0 52 32 21
0.0354464 0.096956 -0.680331 0 0 0 55 32 18
0.0359095 0.0953641 -0.680209 0 0 0 57 31 16
0.0416597 0.0931436 -0.678843 0 0 0 57 30 13
0.0412303 0.0916696 -0.678931 0 0 0 60 33 14
0.0412129 0.0901464 -0.678921 0 0 0 61 35 18
0.0411956 0.0886233 -0.678912 0 0 0 56 34 20
0.0422081 0.0869849 -0.67866 0 0 0 47 31 18
0.0438389 0.0852822 -0.678263 0 0 0 32 19 10
0.0452636 0.0836078 -0.677915 0 0 0 15 6 0
0.0468944 0.0819167 -0.677518 0 0 0 11 2 0
0.0479073 0.0802963 -0.677266 0 0 0 14 5 0
0.0495382 0.0786161 -0.67687 0 0 0 15 4 0
0.0507571 0.0769835 -0.67657 0 0 0 18 5 0
0.0525942 0.0752941 -0.676125 0 0 0 23 10 2
0.0540192 0.0736516 -0.675777 0 0 0 21 11 2
0.0555476 0.0720045 -0.675404 0 0 0 17 8 1
0.0559425 0.0704692 -0.675298 0 0 0 14 4 2
0.0572648 0.0688502 -0.674974 0 0 0 10 0 1
0.0578658 0.0673011 -0.67482 0 0 0 6 0 2
0.0601153 0.0656087 -0.674278 0 0 0 8 0 6
0.0623652 0.0639246 -0.673737 0 0 0 11 1 9
0.0633786 0.0623534 -0.673486 0 0 0 10 0 7
0.0649071 0.0607432 -0.673113 0 0 0 11 0 5
0.0662296 0.0591554 -0.67279 0 0 0 12 0 2
0.0680675 0.0575316 -0.672345 0 0 0 14 0 0
0.0696994 0.0559306 -0.671949 0 0 0 17 3 2
0.0698887 0.0544444 -0.671891 0 0 0 28 12 12
0.0719328 0.0528224 -0.671399 0 0 0 39 21 19
0.0741832 0.0511931 -0.670857 0 0 0 50 30 29
0.0764336 0.049572 -0.670316 0 0 0 60 41 34
0.0778596 0.0480154 -0.669969 0 0 0 72 53 36
0.0801102 0.0464093 -0.669428 0 0 0 62 46 23
0.0815364 0.0448647 -0.66908 0 0 0 48 37 19
0.0825505 0.0433512 -0.668829 0 0 0 56 44 28
0.0839768 0.0418164 -0.668482 0 0 0 62 46 30
0.0839603 0.040372 -0.668473 0 0 0 68 38 28
0.0847683 0.0388805 -0.66827 0 0 0 81 28 34
0.0859886 0.0373691 -0.667971 0 0 0 127 56 54
0.0859722 0.0359285 -0.667962 0 0 0 161 74 46
0.0859558 0.0344879 -0.667953 0 0 0 159 55 28
0.0851148 0.0330885 -0.668137 0 0 0 136 12 14
0.0838615 0.031706 -0.668418 0 0 0 133 0 22
0.0836389 0.0302712 -0.668458 0 0 0 135 0 38
0.0823855 0.0288815 -0.668738 0 0 0 136 1 42
0.0817505 0.027461 -0.668874 0 0 0 137 10 37
0.0794661 0.0261056 -0.669397 0 0 0 150 46 57
0.0769755 0.02475 -0.669968 0 0 0 142 78 69
0.0755156 0.023347 -0.670297 0 0 0 144 101 92
0.0741589 0.0219351 -0.670602 0 0 0 137 97 105
0.0738329 0.0204837 -0.670665 0 0 0 136 100 112
0.0727853 0.0190541 -0.670897 0 0 0 121 92 97
0.0705004 0.0176578 -0.671419 0 0 0 113 87 96
0.0692466 0.0162243 -0.6717 0 0 0 103 78 97
0.0686112 0.01477 -0.671836 0 0 0 98 75 101
0.0667385 0.0133437 -0.672261 0 0 0 68 51 85
0.065175 0.0119037 -0.672614 0 0 0 38 27 59
0.0640241 0.0104494 -0.672871 0 0 0 12 9 28
0.0633886 0.00898118 -0.673006 0 0 0 5 5 17
0.0631655 0.00750362 -0.673045 0 0 0 3 3 13
0.0614987 0.00604754 -0.673422 0 0 0 6 4 7
0.0604507 0.00457705 -0.673654 0 0 0 10 6 0
0.0587838 0.00311009 -0.674031 0 0 0 11 1 0
0.0223912 -0.0229008 -0.682315 0 0 0 122 94 106
0.0227861 -0.0244472 -0.682209 0 0 0 128 96 107
0.0232727 -0.0259899 -0.682081 0 0 0 131 99 102
0.0225673 -0.0275602 -0.682232 0 0 0 136 102 103
0.0214033 -0.0291451 -0.682491 0 0 0 141 104 111
0.0202393 -0.0307342 -0.682749 0 0 0 142 105 113
0.0173328 -0.0323798 -0.683414 0 0 0 141 104 112
0.0127241 -0.0340902 -0.684478 0 0 0 141 106 113
0.010786 -0.0357273 -0.684916 0 0 0 135 105 107
0.00985086 -0.0373357 -0.685121 0 0 0 136 107 111
0.00828521 -0.038971 -0.685473 0 0 0 128 101 108
0.00904102 -0.0405211 -0.685282 0 0 0 95 68 73
0.00945292 -0.0420824 -0.685172 0 0 0 45 19 20
0.0342983 0.0985501 -0.679126 0 0 0 53 31 17
0.0347963 0.0969524 -0.678996 0 0 0 58 32 19
0.0352942 0.0953567 -0.678867 0 0 0 60 32 18
0.0424931 0.0929644 -0.677173 0 0 0 59 30 16
0.0424758 0.0914451 -0.677164 0 0 0 60 31 17
0.0422523 0.0899495 -0.677202 0 0 0 59 31 19
0.0418226 0.0884766 -0.677289 0 0 0 53 29 17
0.0424238 0.0868869 -0.677135 0 0 0 44 26 16
0.0444686 0.0851407 -0.676645 0 0 0 27 14 6
0.0456885 0.0834912 -0.676347 0 0 0 12 3 0
0.0464962 0.0818901 -0.676145 0 0 0 9 2 0
0.0477163 0.0802488 -0.675847 0 0 0 11 3 0
0.0487301 0.0786333 -0.675597 0 0 0 11 3 0
0.0507752 0.0769174 -0.675107 0 0 0 10 0 0
0.0526141 0.0752295 -0.674664 0 0 0 10 2 0
0.0538343 0.0736085 -0.674367 0 0 0 7 2 0
0.0551579 0.0719822 -0.674045 0 0 0 5 1 0
0.055244 0.0704766 -0.674011 0 0 0 6 0 2
0.0563612 0.0688767 -0.673737 0 0 0 6 0 4
0.0572723 0.0672995 -0.673512 0 0 0 6 0 6
0.0597303 0.0655893 -0.672926 0 0 0 10 0 8
0.0623948 0.0638703 -0.672292 0 0 0 10 1 6
0.0634092 0.0623005 -0.672042 0 0 0 9 0 2
0.064733 0.0607089 -0.67172 0 0 0 8 0 0
0.066882 0.0590554 -0.671206 0 0 0 14 0 0
0.0676903 0.0575158 -0.671005 0 0 0 18 5 0
0.0693238 0.0559155 -0.670611 0 0 0 24 10 1
0.0699259 0.054399 -0.670458 0 0 0 37 20 12
0.0719721 0.0527784 -0.669968 0 0 0 50 33 23
0.0740184 0.0511653 -0.669479 0 0 0 60 42 32
0.0760646 0.0495598 -0.668989 0 0 0 64 46 32
0.0791426 0.0478914 -0.668259 0 0 0 64 50 24
0.080467 0.0463506 -0.667938 0 0 0 55 41 14
0.0815852 0.044828 -0.667665 0 0 0 45 33 11
0.0821876 0.0433419 -0.667512 0 0 0 53 40 21
0.0832027 0.0418329 -0.667262 0 0 0 58 40 20
0.0840115 0.0403398 -0.667061 0 0 0 64 34 23
0.085233 0.0388261 -0.666764 0 0 0 75 27 27
0.0852166 0.0373855 -0.666755 0 0 0 114 49 47
0.0852001 0.0359449 -0.666746 0 0 0 137 56 35
0.0851837 0.0345043 -0.666737 0 0 0 144 49 29
0.0851673 0.0330637 -0.666728 0 0 0 128 15 17
0.0832937 0.0317125 -0.667151 0 0 0 123 2 21
0.083071 0.0302781 -0.66719 0 0 0 125 1 35
0.0824354 0.0288613 -0.667325 0 0 0 126 5 40
0.0809744 0.0274775 -0.667652 0 0 0 122 6 27
0.0799261 0.0260716 -0.667883 0 0 0 131 35 39
0.0778457 0.0247022 -0.668354 0 0 0 136 73 56
0.0757654 0.0233252 -0.668825 0 0 0 149 104 85
0.0755424 0.0218751 -0.668863 0 0 0 141 101 99
0.0740812 0.0204657 -0.66919 0 0 0 132 100 103
0.0731357 0.0190348 -0.669397 0 0 0 118 92 95
0.0695072 0.0176808 -0.670228 0 0 0 110 87 93
0.0680457 0.0162527 -0.670554 0 0 0 104 82 95
0.0672031 0.014803 -0.670737 0 0 0 108 87 106
0.0653287 0.0133757 -0.67116 0 0 0 86 68 90
0.063351 0.0119439 -0.671606 0 0 0 57 44 64
0.0628181 0.0104749 -0.671717 0 0 0 29 23 35
0.0625948 0.00899807 -0.671756 0 0 0 15 14 20
0.0627844 0.00751341 -0.671698 0 0 0 9 8 14
0.0607032 0.00606447 -0.672169 0 0 0 9 8 6
0.0580027 0.00461644 -0.672783 0 0 0 12 9 0
0.0582436 0.00312404 -0.672714 0 0 0 13 3 0
0.0577106 0.00164028 -0.672825 0 0 0 16 0 0
0.054855 0.000173531 -0.673475 0 0 0 16 0 3
0.0215579 -0.0228831 -0.681002 0 0 0 122 95 102
0.0229168 -0.0244093 -0.680673 0 0 0 128 97 105
0.023358 -0.0259514 -0.680557 0 0 0 131 100 105
0.0231109 -0.0275087 -0.6806 0 0 0 137 105 108
0.0219459 -0.029091 -0.680857 0 0 0 142 110 113
0.0203218 -0.0306905 -0.68122 0 0 0 141 109 112
0.0190911 -0.032284 -0.681491 0 0 0 136 106 106
0.0131722 -0.0340312 -0.682851 0 0 0 135 107 103
0.0115479 -0.0356552 -0.683213 0 0 0 129 104 97
0.00992345 -0.0372852 -0.683576 0 0 0 128 105 97
0.00875787 -0.0389038 -0.683832 0 0 0 120 99 98
0.0080514 -0.0405087 -0.683982 0 0 0 89 67 69
0.0078039 -0.0420972 -0.684025 0 0 0 45 24 23
0.00893349 -0.0436278 -0.683749 0 0 0 46 23 15
0.00994827 -0.0451593 -0.6835 0 0 0 49 27 3
0.0344903 0.0969066 -0.677582 0 0 0 59 31 17
0.0344729 0.0953741 -0.677573 0 0 0 61 32 18
0.0431695 0.0928043 -0.675545 0 0 0 62 30 17
0.0437255 0.0912205 -0.675403 0 0 0 62 30 19
0.0435017 0.0897287 -0.675441 0 0 0 58 30 19
0.0428652 0.088283 -0.675575 0 0 0 51 27 17
0.0434672 0.0866967 -0.675422 0 0 0 41 22 15
0.0453076 0.0849764 -0.674983 0 0 0 23 10 4
0.0463224 0.0833522 -0.674734 0 0 0 8 0 0
0.0471308 0.0817537 -0.674534 0 0 0 5 0 0
0.0479392 0.0801582 -0.674333 0 0 0 7 1 1
0.0491605 0.0785233 -0.674037 0 0 0 7 1 1
0.0512076 0.0768097 -0.67355 0 0 0 8 0 0
0.0526356 0.0751649 -0.673206 0 0 0 5 0 1
0.0539603 0.0735353 -0.672887 0 0 0 4 0 3
0.0545626 0.0719796 -0.672734 0 0 0 2 0 5
0.0549585 0.0704454 -0.672629 0 0 0 5 0 6
0.0559736 0.0688559 -0.672381 0 0 0 7 0 7
0.0566791 0.067298 -0.672204 0 0 0 8 2 6
0.0591395 0.0655881 -0.671622 0 0 0 9 0 3
0.0622196 0.0638338 -0.670897 0 0 0 9 0 0
0.064164 0.0621866 -0.670434 0 0 0 11 0 0
0.0662118 0.0605381 -0.669947 0 0 0 15 2 0
0.0685696 0.058872 -0.669389 0 0 0 23 9 0
0.0685529 0.0574021 -0.66938 0 0 0 31 17 4
0.0695684 0.0558526 -0.669132 0 0 0 39 23 10
0.0703776 0.0543223 -0.668932 0 0 0 47 31 18
0.0726324 0.0526888 -0.668397 0 0 0 57 40 30
0.0753001 0.0510339 -0.667768 0 0 0 62 45 35
0.077142 0.0494464 -0.667329 0 0 0 60 47 31
0.078571 0.0478939 -0.666986 0 0 0 51 41 14
0.0794838 0.0463808 -0.666762 0 0 0 45 38 10
0.0806031 0.0448578 -0.66649 0 0 0 42 31 13
0.0824451 0.0432937 -0.666052 0 0 0 48 33 14
0.0824287 0.0418493 -0.666043 0 0 0 49 29 2
0.0828252 0.0403806 -0.665938 0 0 0 55 29 2
0.0844609 0.0388425 -0.665548 0 0 0 57 21 5
0.0844445 0.0374019 -0.665539 0 0 0 82 32 23
0.0844281 0.0359613 -0.66553 0 0 0 114 47 41
0.0844116 0.0345208 -0.665521 0 0 0 127 46 45
0.0843952 0.0330802 -0.665512 0 0 0 116 19 28
0.0831396 0.0316992 -0.665789 0 0 0 112 6 20
0.0822969 0.0302946 -0.66597 0 0 0 111 3 18
0.0822804 0.0288502 -0.665961 0 0 0 112 5 13
0.0806115 0.0274764 -0.666334 0 0 0 106 4 0
0.079149 0.0260881 -0.666659 0 0 0 113 26 7
0.0770666 0.0247187 -0.667126 0 0 0 121 55 21
0.0762237 0.0232958 -0.667308 0 0 0 145 95 62
0.0749677 0.0218844 -0.667585 0 0 0 144 102 86
0.073505 0.0204755 -0.66791 0 0 0 138 107 104
0.071939 0.0190646 -0.668258 0 0 0 123 101 104
0.0687201 0.0176975 -0.668988 0 0 0 114 94 103
0.0678769 0.016252 -0.669169 0 0 0 104 83 98
0.0676535 0.0147872 -0.669208 0 0 0 105 87 101
0.0657771 0.0133622 -0.669627 0 0 0 106 89 97
0.0626613 0.0119584 -0.670333 0 0 0 82 70 72
0.0625411 0.010481 -0.670348 0 0 0 56 51 47
0.0623176 0.00900513 -0.670386 0 0 0 40 37 32
0.0619908 0.0075303 -0.670448 0 0 0 29 25 24
0.0601143 0.00607821 -0.670868 0 0 0 29 24 21
0.0576176 0.00462781 -0.67143 0 0 0 34 24 14
0.0580139 0.00313433 -0.671326 0 0 0 34 21 13
0.0571704 0.0016547 -0.671507 0 0 0 29 12 18
0.0540538 0.000190581 -0.672212 0 0 0 22 4 16
0.0215336 -0.0244031 -0.679489 0 0 0 129 98 104
0.0217226 -0.0259519 -0.679432 0 0 0 132 101 107
0.02159 -0.0275079 -0.679449 0 0 0 134 105 109
0.021113 -0.0290733 -0.679545 0 0 0 135 107 106
0.0201764 -0.0306534 -0.679747 0 0 0 126 101 97
0.0196993 -0.032223 -0.679843 0 0 0 115 95 88
0.0141684 -0.0339549 -0.681102 0 0 0 111 93 81
0.0104751 -0.035645 -0.681938 0 0 0 112 97 78
0.00861948 -0.0372835 -0.682351 0 0 0 112 99 80
0.00791219 -0.0388858 -0.6825 0 0 0 109 96 80
0.00743478 -0.0404817 -0.682596 0 0 0 83 69 60
0.00741676 -0.0420604 -0.682586 0 0 0 45 26 22
0.00808792 -0.0436098 -0.682418 0 0 0 46 26 19
0.00910382 -0.0451414 -0.68217 0 0 0 51 29 8
0.0447897 0.0925322 -0.673706 0 0 0 61 28 11
0.0441527 0.0910926 -0.673839 0 0 0 62 30 15
0.0437222 0.0896269 -0.673924 0 0 0 61 31 20
0.0434983 0.0881362 -0.673962 0 0 0 54 29 22
0.0441009 0.0865525 -0.67381 0 0 0 43 24 20
0.0449102 0.0849483 -0.673611 0 0 0 24 10 10
0.0469589 0.0832132 -0.673127 0 0 0 9 0 3
0.0469417 0.0817051 -0.673117 0 0 0 4 0 3
0.0481643 0.0800676 -0.672823 0 0 0 5 0 4
0.0498 0.0783922 -0.672434 0 0 0 6 1 5
0.0516426 0.0767019 -0.671998 0 0 0 6 2 3
0.0528653 0.0750797 -0.671704 0 0 0 5 0 4
0.0538815 0.0734821 -0.671457 0 0 0 5 2 9
0.0544843 0.0719277 -0.671305 0 0 0 4 1 10
0.0547772 0.0704045 -0.671225 0 0 0 5 0 7
0.0553802 0.068854 -0.671073 0 0 0 6 0 6
0.0560864 0.0672964 -0.670898 0 0 0 10 1 4
0.0592726 0.0655232 -0.670153 0 0 0 10 0 0
0.0625623 0.0637527 -0.669385 0 0 0 13 2 0
0.0640954 0.0621424 -0.66902 0 0 0 20 7 0
0.0665587 0.060461 -0.668442 0 0 0 31 17 4
0.0679886 0.058872 -0.6681 0 0 0 40 24 9
0.0692118 0.0573047 -0.667807 0 0 0 48 32 17
0.0704352 0.0557418 -0.667513 0 0 0 53 37 24
0.0715553 0.0541912 -0.667243 0 0 0 56 39 29
0.074329 0.0525231 -0.666594 0 0 0 61 44 37
0.0749324 0.0510208 -0.666442 0 0 0 63 45 43
0.0765694 0.0494486 -0.666054 0 0 0 57 44 38
0.0786199 0.0478542 -0.665571 0 0 0 48 45 28
0.0788101 0.0463905 -0.665514 0 0 0 46 43 26
0.0796204 0.0448877 -0.665316 0 0 0 46 35 29
0.0812577 0.043336 -0.664927 0 0 0 48 34 25
0.0816546 0.0418658 -0.664823 0 0 0 47 29 7
0.0820515 0.0403971 -0.66472 0 0 0 54 34 9
0.0836889 0.038859 -0.664331 0 0 0 48 25 7
0.0837758 0.0374127 -0.664299 0 0 0 61 27 17
0.083656 0.0359778 -0.664313 0 0 0 86 36 37
0.0836396 0.0345372 -0.664304 0 0 0 102 36 40
0.0836232 0.0330966 -0.664295 0 0 0 99 18 24
0.0821595 0.0317256 -0.664618 0 0 0 100 9 14
0.0815228 0.0303111 -0.664751 0 0 0 99 3 7
0.0815063 0.0288667 -0.664742 0 0 0 101 3 2
0.0802492 0.0274753 -0.665017 0 0 0 92 0 0
0.0787854 0.0260878 -0.66534 0 0 0 95 13 0
0.0779418 0.0246708 -0.66552 0 0 0 118 49 10
0.0766845 0.0232662 -0.665795 0 0 0 146 91 52
0.0746001 0.0218864 -0.66626 0 0 0 147 105 80
0.0735497 0.0204644 -0.666487 0 0 0 142 112 101
0.0727058 0.019032 -0.666668 0 0 0 125 105 106
0.0700008 0.0176524 -0.667274 0 0 0 114 99 106
0.0677093 0.0162513 -0.667786 0 0 0 102 86 97
0.0670722 0.0147986 -0.667919 0 0 0 101 86 93
0.0650907 0.0133764 -0.668359 0 0 0 99 83 83
0.0619717 0.011973 -0.66906 0 0 0 92 79 71
0.0616446 0.0105 -0.669122 0 0 0 85 77 66
0.0612141 0.00902792 -0.669207 0 0 0 78 71 63
0.0607836 0.00755431 -0.669293 0 0 0 66 58 56
0.0593189 0.00609514 -0.669615 0 0 0 59 47 47
0.0568198 0.00464478 -0.670174 0 0 0 53 39 30
0.0574234 0.00314886 -0.670022 0 0 0 45 28 20
0.0557517 0.00167787 -0.670392 0 0 0 38 22 22
0.0539766 0.000201726 -0.670785 0 0 0 28 11 17
0.052615 -0.00128342 -0.671083 0 0 0 19 4 11
0.0355139 -0.0133909 -0.674887 0 0 0 137 116 125
0.0375654 -0.0148971 -0.674404 0 0 0 131 107 121
0.037548 -0.0164202 -0.674395 0 0 0 129 103 116
0.0203906 -0.0243918 -0.678249 0 0 0 126 95 101
0.0205453 -0.025942 -0.6782 0 0 0 127 98 103
0.0202977 -0.0275014 -0.678242 0 0 0 128 102 103
0.0198202 -0.0290677 -0.678338 0 0 0 126 106 99
0.0198024 -0.0306227 -0.678328 0 0 0 116 100 87
0.0193249 -0.0321915 -0.678423 0 0 0 103 91 79
0.0140186 -0.0339151 -0.679622 0 0 0 96 89 71
0.0117014 -0.0355577 -0.680137 0 0 0 92 88 61
0.0100739 -0.0371842 -0.680495 0 0 0 97 94 63
0.00867628 -0.038808 -0.6808 0 0 0 100 97 66
0.00842841 -0.040392 -0.680843 0 0 0 80 72 49
0.00887032 -0.0419486 -0.680728 0 0 0 40 26 17
0.00908228 -0.0435134 -0.680666 0 0 0 42 21 16
0.0099842 -0.0450468 -0.680446 0 0 0 50 27 11
0.0442033 0.0940368 -0.672391 0 0 0 54 22 1
0.0441861 0.0925249 -0.672382 0 0 0 56 24 1
0.0439621 0.0910372 -0.672419 0 0 0 61 29 8
0.0439448 0.089525 -0.67241 0 0 0 63 31 16
0.0439276 0.0880127 -0.6724 0 0 0 58 31 22
0.0441172 0.0864774 -0.672344 0 0 0 47 25 27
0.0453408 0.0848293 -0.672051 0 0 0 27 12 19
0.0461507 0.0832304 -0.671853 0 0 0 12 1 15
0.0461335 0.0817223 -0.671844 0 0 0 6 0 14
0.0481846 0.0799984 -0.671363 0 0 0 3 0 9
0.0489946 0.0784093 -0.671165 0 0 0 3 0 7
0.0506321 0.0767398 -0.670779 0 0 0 4 2 3
0.0522698 0.0750764 -0.670392 0 0 0 3 1 4
0.0544245 0.0733687 -0.669888 0 0 0 4 1 10
0.0549245 0.0718266 -0.669761 0 0 0 5 2 13
0.0557349 0.0702573 -0.669563 0 0 0 6 1 8
0.0573726 0.0686152 -0.669177 0 0 0 9 3 7
0.0594243 0.066942 -0.668696 0 0 0 16 6 5
0.0611656 0.0653036 -0.668286 0 0 0 19 8 4
0.0624934 0.0637072 -0.667971 0 0 0 25 12 3
0.0643382 0.062072 -0.667538 0 0 0 36 22 9
0.0661835 0.0604436 -0.667104 0 0 0 49 33 17
0.0684423 0.0587886 -0.666577 0 0 0 51 35 19
0.0698737 0.0572071 -0.666238 0 0 0 57 41 28
0.0708915 0.0556628 -0.665993 0 0 0 61 44 36
0.0730471 0.0540365 -0.66549 0 0 0 59 44 41
0.0739614 0.0525094 -0.665269 0 0 0 63 47 50
0.0758068 0.0509189 -0.664836 0 0 0 64 47 57
0.0757903 0.0494652 -0.664827 0 0 0 55 45 54
0.0778428 0.0478707 -0.664347 0 0 0 43 47 50
0.0778263 0.0464208 -0.664337 0 0 0 36 39 44
0.0787409 0.0449108 -0.664117 0 0 0 37 29 42
0.0794486 0.0434172 -0.663943 0 0 0 45 29 40
0.0808805 0.0418823 -0.663604 0 0 0 45 27 27
0.080864 0.0404379 -0.663595 0 0 0 52 35 28
0.0829168 0.0388754 -0.663115 0 0 0 39 29 20
0.0829004 0.0374348 -0.663106 0 0 0 46 29 22
0.0832978 0.0359721 -0.663003 0 0 0 53 22 19
0.0829709 0.0345483 -0.663065 0 0 0 68 20 16
0.0828511 0.033113 -0.663079 0 0 0 73 9 0
0.0826277 0.0316824 -0.663117 0 0 0 86 7 3
0.0821974 0.0302606 -0.663202 0 0 0 90 0 9
0.0807323 0.0288832 -0.663522 0 0 0 100 7 17
0.079681 0.0274829 -0.663749 0 0 0 98 9 13
0.0781121 0.0261001 -0.664093 0 0 0 100 18 7
0.0776817 0.0246672 -0.664178 0 0 0 113 37 5
0.0756988 0.0232905 -0.664616 0 0 0 142 78 40
0.0744404 0.021881 -0.664889 0 0 0 144 99 68
0.0729749 0.0204741 -0.665209 0 0 0 140 109 89
0.0725443 0.019029 -0.665294 0 0 0 121 104 97
0.0694227 0.0176629 -0.66599 0 0 0 112 102 103
0.067543 0.0162507 -0.666404 0 0 0 107 96 102
0.0663877 0.0148126 -0.666654 0 0 0 106 94 96
0.0647148 0.0133831 -0.667021 0 0 0 105 92 86
0.0617998 0.0119758 -0.66767 0 0 0 99 86 78
0.0609549 0.0105147 -0.667849 0 0 0 91 80 74
0.0611451 0.00903101 -0.667793 0 0 0 81 70 68
0.0608177 0.00755694 -0.667854 0 0 0 72 57 62
0.0591446 0.00610249 -0.668221 0 0 0 71 55 56
0.0566432 0.00465331 -0.668776 0 0 0 74 54 45
0.0572474 0.0031585 -0.668625 0 0 0 68 49 34
0.0549529 0.00169487 -0.669133 0 0 0 58 42 27
0.0519338 0.00022891 -0.669806 0 0 0 58 44 31
0.0518132 -0.00126636 -0.66982 0 0 0 62 50 38
0.051382 -0.00276059 -0.669904 0 0 0 67 57 45
0.0367665 -0.0133566 -0.673128 0 0 0 131 105 104
