ply
format ascii 1.0
element vertex 1096
property float x
property float y
property float z
property float nx
property float ny
property float nz
property uchar red
property uchar green
property uchar blue
end_header
-0.00357364 0.0262067 -0.635 0 0 0 37 6 14
-0.00357364 0.0250155 -0.635 0 0 0 37 4 15
-0.00357364 0.0238243 -0.635 0 0 0 49 16 27
-0.00356802 0.0225974 -0.634 0 0 0 56 24 29
-0.00356802 0.0214081 -0.634 0 0 0 53 20 15
-0.00356802 0.0202188 -0.634 0 0 0 50 17 10
-0.00356239 0.0189994 -0.633 0 0 0 68 33 37
-0.00356239 0.0178119 -0.633 0 0 0 71 36 43
-0.00355676 0.0165982 -0.632 0 0 0 100 68 73
-0.00355113 0.0153882 -0.631 0 0 0 105 75 75
-0.00355113 0.0142045 -0.631 0 0 0 108 78 76
-0.00353988 0.0129796 -0.629 0 0 0 104 75 71
-0.00353988 0.0117996 -0.629 0 0 0 96 67 63
-0.00353425 0.0106028 -0.628 0 0 0 92 63 59
-0.00353425 0.00942467 -0.628 0 0 0 55 24 22
-0.00352862 0.00823345 -0.627 0 0 0 57 23 24
-0.00352862 0.00705724 -0.627 0 0 0 57 22 26
-0.00352299 0.00587166 -0.626 0 0 0 58 26 29
-0.00352862 0.00470483 -0.627 0 0 0 68 38 40
-0.00352862 0.00352862 -0.627 0 0 0 82 53 55
-0.00351737 0.00234491 -0.625 0 0 0 91 65 66
-0.00351737 0.00117246 -0.625 0 0 0 97 68 64
-0.00350611 -5.55112e-017 -0.623 0 0 0 101 65 51
-0.00350048 -0.00116683 -0.622 0 0 0 96 60 38
-0.00348923 -0.00232615 -0.62 0 0 0 89 55 27
-0.00350048 -0.00350048 -0.622 0 0 0 85 55 21
-0.00348923 -0.0046523 -0.62 0 0 0 85 55 19
-0.00348923 -0.00581538 -0.62 0 0 0 86 54 16
-0.00348923 -0.00697846 -0.62 0 0 0 88 52 16
-0.0034836 -0.0081284 -0.619 0 0 0 92 53 14
-0.0034836 -0.0092896 -0.619 0 0 0 92 47 6
-0.00347797 -0.0104339 -0.618 0 0 0 99 50 7
-0.00347234 -0.0115745 -0.617 0 0 0 104 53 8
-0.00347234 -0.0127319 -0.617 0 0 0 109 57 18
-0.00346672 -0.0138669 -0.616 0 0 0 105 54 27
-0.00346672 -0.0150224 -0.616 0 0 0 109 57 46
-0.00346672 -0.016178 -0.616 0 0 0 126 73 81
-0.00346672 -0.0173336 -0.616 0 0 0 131 80 97
-0.00346672 -0.0184892 -0.616 0 0 0 108 63 84
-0.00346672 -0.0196447 -0.616 0 0 0 98 55 75
-0.00346672 -0.0208003 -0.616 0 0 0 124 81 101
-0.00346672 -0.0219559 -0.616 0 0 0 168 125 144
-0.00347234 -0.023149 -0.617 0 0 0 173 132 146
-0.00346672 -0.024267 -0.616 0 0 0 173 132 148
-0.00346672 -0.0254226 -0.616 0 0 0 193 151 173
-0.00346672 -0.0265782 -0.616 0 0 0 199 157 177
-0.00244996 0.0759489 -0.653 0 0 0 69 47 60
-0.00244621 0.0746094 -0.652 0 0 0 113 87 98
-0.00244621 0.0733863 -0.652 0 0 0 130 100 112
-0.00244621 0.0721632 -0.652 0 0 0 131 98 109
-0.00244246 0.0708313 -0.651 0 0 0 133 96 103
-0.00244246 0.0696101 -0.651 0 0 0 143 103 114
-0.00243871 0.0682838 -0.65 0 0 0 152 108 133
-0.00243871 0.0670645 -0.65 0 0 0 156 109 141
-0.00243871 0.0658451 -0.65 0 0 0 157 108 137
-0.00243871 0.0646257 -0.65 0 0 0 153 107 135
-0.0024312 0.0632113 -0.648 0 0 0 154 109 140
-0.0024312 0.0619957 -0.648 0 0 0 155 110 139
-0.0024312 0.0607801 -0.648 0 0 0 152 110 132
-0.0024312 0.0595645 -0.648 0 0 0 151 109 131
-0.00242745 0.0582589 -0.647 0 0 0 148 103 132
-0.00242745 0.0570451 -0.647 0 0 0 150 105 134
-0.00242745 0.0558314 -0.647 0 0 0 152 107 127
-0.00242745 0.0546177 -0.647 0 0 0 164 121 131
-0.0024237 0.0533214 -0.646 0 0 0 169 126 133
-0.0024237 0.0521096 -0.646 0 0 0 165 123 137
-0.00241995 0.0508189 -0.645 0 0 0 165 123 161
-0.00241995 0.0496089 -0.645 0 0 0 161 122 167
-0.0024162 0.0483239 -0.644 0 0 0 157 123 160
-0.0024162 0.0471158 -0.644 0 0 0 153 122 153
-0.0024162 0.0459077 -0.644 0 0 0 150 121 143
-0.0024162 0.0446996 -0.644 0 0 0 127 94 121
-0.00240494 0.0432889 -0.641 0 0 0 49 10 54
-0.00240119 0.0420208 -0.64 0 0 0 51 8 51
-0.00239744 0.0407564 -0.639 0 0 0 70 26 49
-0.00239744 0.0395577 -0.639 0 0 0 79 39 50
-0.00239744 0.038359 -0.639 0 0 0 87 56 64
-0.00239369 0.0371021 -0.638 0 0 0 84 54 62
-0.00239369 0.0359053 -0.638 0 0 0 87 55 66
-0.00239369 0.0347084 -0.638 0 0 0 79 48 63
-0.00239369 0.0335116 -0.638 0 0 0 67 42 61
-0.00238618 0.0322134 -0.636 0 0 0 51 30 47
-0.00238618 0.0310204 -0.636 0 0 0 27 9 21
-0.00238618 0.0298273 -0.636 0 0 0 29 8 17
-0.00238243 0.0285892 -0.635 0 0 0 32 5 14
-0.00238243 0.0273979 -0.635 0 0 0 36 5 11
-0.00238243 0.0262067 -0.635 0 0 0 33 3 5
-0.00238243 0.0250155 -0.635 0 0 0 30 1 5
-0.00238243 0.0238243 -0.635 0 0 0 37 9 21
-0.00238243 0.0226331 -0.635 0 0 0 55 29 32
-0.00237868 0.0214081 -0.634 0 0 0 69 42 23
-0.00237868 0.0202188 -0.634 0 0 0 74 45 15
-0.00237493 0.0189994 -0.633 0 0 0 84 51 20
-0.00237493 0.0178119 -0.633 0 0 0 97 63 36
-0.00237117 0.0165982 -0.632 0 0 0 125 92 75
-0.00236742 0.0153882 -0.631 0 0 0 144 111 104
-0.00236742 0.0142045 -0.631 0 0 0 169 137 140
-0.00235992 0.0129796 -0.629 0 0 0 135 104 112
-0.00235992 0.0117996 -0.629 0 0 0 75 43 54
-0.00235617 0.0106028 -0.628 0 0 0 60 28 39
-0.00235617 0.00942467 -0.628 0 0 0 56 23 32
-0.00235241 0.00823345 -0.627 0 0 0 54 21 28
-0.00235241 0.00705724 -0.627 0 0 0 46 14 19
-0.00234866 0.00587166 -0.626 0 0 0 50 19 24
-0.00234866 0.00469733 -0.626 0 0 0 73 43 51
-0.00234866 0.00352299 -0.626 0 0 0 96 68 80
-0.00234491 0.00234491 -0.625 0 0 0 102 75 90
-0.00234116 0.00117058 -0.624 0 0 0 103 72 87
-0.00233741 -5.55112e-017 -0.623 0 0 0 103 63 71
-0.00233366 -0.00116683 -0.622 0 0 0 99 55 52
-0.00232615 -0.00232615 -0.62 0 0 0 89 52 36
-0.00232615 -0.00348923 -0.62 0 0 0 86 52 25
-0.00232615 -0.0046523 -0.62 0 0 0 84 54 20
-0.00232615 -0.00581538 -0.62 0 0 0 84 51 16
-0.0023224 -0.0069672 -0.619 0 0 0 85 51 16
-0.0023224 -0.0081284 -0.619 0 0 0 89 50 17
-0.0023224 -0.0092896 -0.619 0 0 0 86 43 11
-0.00231865 -0.0104339 -0.618 0 0 0 88 43 14
-0.0023149 -0.0115745 -0.617 0 0 0 92 45 17
-0.0023149 -0.0127319 -0.617 0 0 0 101 55 31
-0.00231114 -0.0138669 -0.616 0 0 0 107 61 48
-0.00231114 -0.0150224 -0.616 0 0 0 114 68 68
-0.00230739 -0.0161517 -0.615 0 0 0 125 81 94
-0.00230739 -0.0173054 -0.615 0 0 0 123 80 99
-0.00231114 -0.0184892 -0.616 0 0 0 118 77 91
-0.00231114 -0.0196447 -0.616 0 0 0 126 88 103
-0.00231114 -0.0208003 -0.616 0 0 0 154 114 138
-0.0023149 -0.0219915 -0.617 0 0 0 182 142 166
-0.0023224 -0.023224 -0.619 0 0 0 180 141 160
-0.00232615 -0.0244246 -0.62 0 0 0 176 137 156
-0.00232615 -0.0255877 -0.62 0 0 0 188 148 172
0 0 0 0 0 0 191 152 173
-0.00122311 0.0758326 -0.652 0 0 0 111 87 101
-0.00122311 0.0746094 -0.652 0 0 0 136 109 118
-0.00122311 0.0733863 -0.652 0 0 0 125 94 102
-0.00122311 0.0721632 -0.652 0 0 0 125 92 99
-0.00122123 0.0708313 -0.651 0 0 0 133 96 103
-0.00122123 0.0696101 -0.651 0 0 0 143 103 114
-0.00121935 0.0682838 -0.65 0 0 0 147 103 128
-0.00121935 0.0670645 -0.65 0 0 0 150 105 134
-0.00121935 0.0658451 -0.65 0 0 0 149 105 132
-0.00121935 0.0646257 -0.65 0 0 0 148 104 131
-0.0012156 0.0632113 -0.648 0 0 0 152 108 135
-0.0012156 0.0619957 -0.648 0 0 0 155 113 135
-0.0012156 0.0607801 -0.648 0 0 0 152 111 129
-0.0012156 0.0595645 -0.648 0 0 0 148 106 126
-0.00121373 0.0582589 -0.647 0 0 0 150 106 131
-0.00121373 0.0570451 -0.647 0 0 0 150 106 129
-0.00121373 0.0558314 -0.647 0 0 0 153 109 124
-0.00121185 0.0545333 -0.646 0 0 0 164 123 131
-0.00121185 0.0533214 -0.646 0 0 0 168 129 134
-0.00120997 0.0520289 -0.645 0 0 0 162 124 139
-0.00120997 0.0508189 -0.645 0 0 0 164 124 158
-0.0012081 0.049532 -0.644 0 0 0 162 126 164
-0.0012081 0.0483239 -0.644 0 0 0 156 126 152
-0.0012081 0.0471158 -0.644 0 0 0 156 128 150
-0.0012081 0.0459077 -0.644 0 0 0 152 125 144
-0.00120435 0.0445608 -0.642 0 0 0 112 81 112
-0.00120247 0.0432889 -0.641 0 0 0 41 3 54
-0.00120059 0.0420208 -0.64 0 0 0 58 16 64
-0.00119872 0.0407564 -0.639 0 0 0 57 15 37
-0.00119872 0.0395577 -0.639 0 0 0 58 18 27
-0.00119872 0.038359 -0.639 0 0 0 66 33 42
-0.00119872 0.0371603 -0.639 0 0 0 76 44 55
-0.00119872 0.0359616 -0.639 0 0 0 83 51 64
-0.00119684 0.0347084 -0.638 0 0 0 63 32 48
-0.00119684 0.0335116 -0.638 0 0 0 45 20 39
-0.00119684 0.0323148 -0.638 0 0 0 37 16 31
-0.00119309 0.0310204 -0.636 0 0 0 21 4 12
-0.00119309 0.0298273 -0.636 0 0 0 26 5 10
-0.00119121 0.0285892 -0.635 0 0 0 31 4 11
-0.00119121 0.0273979 -0.635 0 0 0 30 1 5
-0.00119121 0.0262067 -0.635 0 0 0 34 9 5
-0.00119121 0.0250155 -0.635 0 0 0 31 7 5
-0.00119121 0.0238243 -0.635 0 0 0 16 0 1
-0.00118934 0.0225974 -0.634 0 0 0 26 1 4
-0.00118934 0.0214081 -0.634 0 0 0 62 35 18
-0.00118746 0.0201869 -0.633 0 0 0 88 59 29
-0.00118746 0.0189994 -0.633 0 0 0 110 82 45
-0.00118746 0.0178119 -0.633 0 0 0 129 100 68
-0.00118371 0.016572 -0.631 0 0 0 169 137 122
-0.00118371 0.0153882 -0.631 0 0 0 176 142 141
-0.00117996 0.0141595 -0.629 0 0 0 175 142 153
-0.00117996 0.0129796 -0.629 0 0 0 137 103 120
-0.00117996 0.0117996 -0.629 0 0 0 76 43 60
-0.00117808 0.0106028 -0.628 0 0 0 50 17 34
-0.00117808 0.00942467 -0.628 0 0 0 54 22 37
-0.00117621 0.00823345 -0.627 0 0 0 49 17 28
-0.00117433 0.00704599 -0.626 0 0 0 43 13 21
-0.00117433 0.00587166 -0.626 0 0 0 55 28 33
-0.00117433 0.00469733 -0.626 0 0 0 85 60 66
-0.00117246 0.00351737 -0.625 0 0 0 104 78 91
-0.00117246 0.00234491 -0.625 0 0 0 104 79 98
-0.00117058 0.00117058 -0.624 0 0 0 111 79 100
-0.0011687 -5.55112e-017 -0.623 0 0 0 104 62 82
-0.00116683 -0.00116683 -0.622 0 0 0 97 54 64
-0.00116308 -0.00232615 -0.62 0 0 0 88 49 42
-0.00116308 -0.00348923 -0.62 0 0 0 85 50 28
-0.00116308 -0.0046523 -0.62 0 0 0 85 52 21
-0.00116308 -0.00581538 -0.62 0 0 0 82 49 14
-0.0011612 -0.0069672 -0.619 0 0 0 82 47 15
-0.0011612 -0.0081284 -0.619 0 0 0 87 48 19
-0.0011612 -0.0092896 -0.619 0 0 0 87 46 18
-0.00115932 -0.0104339 -0.618 0 0 0 91 47 22
-0.00115745 -0.0115745 -0.617 0 0 0 92 47 24
-0.00115745 -0.0127319 -0.617 0 0 0 98 55 38
-0.00115557 -0.0138669 -0.616 0 0 0 102 59 52
-0.00115557 -0.0150224 -0.616 0 0 0 112 70 74
-0.00115557 -0.016178 -0.616 0 0 0 128 87 101
-0.00115557 -0.0173336 -0.616 0 0 0 128 90 105
-0.00115557 -0.0184892 -0.616 0 0 0 133 97 107
-0.00115557 -0.0196447 -0.616 0 0 0 158 122 136
-0.00115745 -0.0208341 -0.617 0 0 0 166 126 150
-0.0011612 -0.0220628 -0.619 0 0 0 173 133 160
-0.00116308 -0.0232615 -0.62 0 0 0 185 145 169
-0.00116683 -0.0245034 -0.622 0 0 0 185 145 169
-0.00116683 -0.0256702 -0.622 0 0 0 186 146 172
-0.00116683 -0.026837 -0.622 0 0 0 192 150 174
5.55112e-017 0.0770557 -0.652 0 0 0 109 80 108
5.55112e-017 0.0758326 -0.652 0 0 0 140 112 124
5.55112e-017 0.0746094 -0.652 0 0 0 135 106 108
5.55112e-017 0.0733863 -0.652 0 0 0 118 86 87
0 0.0720526 -0.651 0 0 0 125 91 92
0 0.0708313 -0.651 0 0 0 133 97 101
0 0.0695032 -0.65 0 0 0 138 100 111
0 0.0682838 -0.65 0 0 0 146 106 130
0 0.0670645 -0.65 0 0 0 142 102 129
0 0.0658451 -0.65 0 0 0 139 98 128
0 0.0644269 -0.648 0 0 0 136 96 122
0 0.0632113 -0.648 0 0 0 136 97 115
0 0.0619957 -0.648 0 0 0 142 104 119
0 0.0607801 -0.648 0 0 0 152 111 127
0 0.0594726 -0.647 0 0 0 155 114 128
0 0.0582589 -0.647 0 0 0 144 103 117
0 0.0570451 -0.647 0 0 0 152 112 121
0 0.0557451 -0.646 0 0 0 162 122 130
0 0.0545333 -0.646 0 0 0 163 123 131
0 0.0532389 -0.645 0 0 0 159 121 134
0 0.0519482 -0.644 0 0 0 167 130 147
0 0.0507401 -0.644 0 0 0 175 137 158
0 0.049532 -0.644 0 0 0 168 134 150
0 0.0483239 -0.644 0 0 0 159 130 132
0 0.0469695 -0.642 0 0 0 165 136 140
0 0.0457652 -0.642 0 0 0 154 122 145
0 0.0444914 -0.641 0 0 0 81 47 84
0 0.0432889 -0.641 0 0 0 43 6 57
0 0.0420208 -0.64 0 0 0 42 7 49
0 0.0407564 -0.639 0 0 0 60 30 42
0 0.0395577 -0.639 0 0 0 52 20 21
0 0.038359 -0.639 0 0 0 51 12 17
0 0.0371603 -0.639 0 0 0 74 34 43
0 0.0359616 -0.639 0 0 0 67 33 47
0 0.0347084 -0.638 0 0 0 47 19 34
0 0.0335116 -0.638 0 0 0 39 16 34
0 0.0322134 -0.636 0 0 0 32 11 26
0 0.0310204 -0.636 0 0 0 24 3 10
0 0.0297804 -0.635 0 0 0 28 6 9
0 0.0285892 -0.635 0 0 0 35 11 11
0 0.0273548 -0.634 0 0 0 30 9 6
0 0.0261655 -0.634 0 0 0 28 10 6
0 0.0249761 -0.634 0 0 0 23 5 3
0 0.0237868 -0.634 0 0 0 21 1 3
0 0.0225974 -0.634 0 0 0 28 3 6
0 0.0214081 -0.634 0 0 0 46 12 10
0 0.0201869 -0.633 0 0 0 68 35 28
0 0.0189994 -0.633 0 0 0 126 99 88
0 0.0178119 -0.633 0 0 0 155 130 125
0 0.016572 -0.631 0 0 0 162 131 146
0 0.0153395 -0.629 0 0 0 168 134 158
0 0.0141595 -0.629 0 0 0 157 121 147
0 0.0129796 -0.629 0 0 0 111 76 98
0 0.0117808 -0.628 0 0 0 76 44 59
0 0.0106028 -0.628 0 0 0 58 26 39
0 0.00942467 -0.628 0 0 0 48 17 32
0 0.00823345 -0.627 0 0 0 51 23 38
0 0.00704599 -0.626 0 0 0 73 47 60
0 0.00587166 -0.626 0 0 0 96 73 83
0 0.00469733 -0.626 0 0 0 108 83 89
0 0.00351737 -0.625 0 0 0 111 86 92
0 0.00234116 -0.624 0 0 0 112 85 94
0 0.00117058 -0.624 0 0 0 109 76 93
0 -5.55112e-017 -0.623 0 0 0 101 65 91
0 -0.00116683 -0.622 0 0 0 94 57 75
0 -0.00232615 -0.62 0 0 0 87 52 48
0 -0.00350048 -0.622 0 0 0 84 52 31
0 -0.0046523 -0.62 0 0 0 86 51 21
0 -0.00581538 -0.62 0 0 0 85 49 15
0 -0.0069672 -0.619 0 0 0 85 46 15
0 -0.0081284 -0.619 0 0 0 86 45 15
0 -0.0092896 -0.619 0 0 0 85 41 12
0 -0.0104339 -0.618 0 0 0 87 43 14
0 -0.0115932 -0.618 0 0 0 94 50 25
0 -0.0127319 -0.617 0 0 0 94 51 34
0 -0.0138669 -0.616 0 0 0 102 59 52
0 -0.0150224 -0.616 0 0 0 107 65 66
0 -0.016178 -0.616 0 0 0 136 93 100
0 -0.0173336 -0.616 0 0 0 143 103 112
0 -0.0184892 -0.616 0 0 0 149 116 127
0 -0.0196766 -0.617 0 0 0 163 129 145
0 -0.0208678 -0.618 0 0 0 171 129 153
0 -0.0220984 -0.62 0 0 0 193 147 175
0 -0.0233366 -0.622 0 0 0 187 141 169
0 -0.0245428 -0.623 0 0 0 188 142 170
0 -0.0257115 -0.623 0 0 0 179 133 162
0 -0.0268802 -0.623 0 0 0 142 91 122
0.00122311 0.0782788 -0.652 0 0 0 109 79 105
0.00122311 0.0770557 -0.652 0 0 0 150 120 144
0.00122311 0.0758326 -0.652 0 0 0 144 114 126
0.00122311 0.0746094 -0.652 0 0 0 126 95 100
0.00122123 0.0732738 -0.651 0 0 0 124 90 91
0.00122123 0.0720526 -0.651 0 0 0 129 93 95
0.00122123 0.0708313 -0.651 0 0 0 128 91 99
0.00121935 0.0695032 -0.65 0 0 0 140 102 115
0.00121935 0.0682838 -0.65 0 0 0 152 113 134
0.00121935 0.0670645 -0.65 0 0 0 145 107 130
0.0012156 0.0656425 -0.648 0 0 0 138 100 123
0.0012156 0.0644269 -0.648 0 0 0 133 96 114
0.0012156 0.0632113 -0.648 0 0 0 133 97 109
0.0012156 0.0619957 -0.648 0 0 0 140 103 111
0.0012156 0.0607801 -0.648 0 0 0 147 107 116
0.00121185 0.0593807 -0.646 0 0 0 147 107 116
0.00121185 0.0581688 -0.646 0 0 0 150 112 123
0.00121185 0.056957 -0.646 0 0 0 145 108 116
0.00120997 0.0556588 -0.645 0 0 0 151 115 117
0.00120997 0.0544488 -0.645 0 0 0 162 126 130
0.0012081 0.0531563 -0.644 0 0 0 165 129 141
0.0012081 0.0519482 -0.644 0 0 0 164 128 142
0.0012081 0.0507401 -0.644 0 0 0 165 132 143
0.0012081 0.049532 -0.644 0 0 0 169 137 142
0.00120435 0.0481739 -0.642 0 0 0 165 136 132
0.00120435 0.0469695 -0.642 0 0 0 154 124 126
0.00120435 0.0457652 -0.642 0 0 0 131 99 123
0.00120247 0.0444914 -0.641 0 0 0 55 20 60
0.00120247 0.0432889 -0.641 0 0 0 30 0 46
0.00120059 0.0420208 -0.64 0 0 0 46 14 55
0.00119872 0.0407564 -0.639 0 0 0 62 34 48
0.00119684 0.0394958 -0.638 0 0 0 71 41 43
0.00119684 0.038299 -0.638 0 0 0 74 33 37
0.00119684 0.0371021 -0.638 0 0 0 66 25 33
0.00119684 0.0359053 -0.638 0 0 0 53 21 32
0.00119684 0.0347084 -0.638 0 0 0 45 19 32
0.00119684 0.0335116 -0.638 0 0 0 31 9 22
0.00119309 0.0322134 -0.636 0 0 0 19 0 10
0.00119309 0.0310204 -0.636 0 0 0 23 0 6
0.00119121 0.0297804 -0.635 0 0 0 33 9 9
0.00119121 0.0285892 -0.635 0 0 0 44 20 16
0.00118934 0.0273548 -0.634 0 0 0 38 19 13
0.00118934 0.0261655 -0.634 0 0 0 30 15 12
0.00118934 0.0249761 -0.634 0 0 0 20 4 4
0.00118934 0.0237868 -0.634 0 0 0 20 0 2
0.00118934 0.0225974 -0.634 0 0 0 27 1 4
0.00118746 0.0213743 -0.633 0 0 0 42 6 10
0.00118746 0.0201869 -0.633 0 0 0 61 25 27
0.00118746 0.0189994 -0.633 0 0 0 134 108 107
0.00118746 0.0178119 -0.633 0 0 0 162 140 143
0.00118371 0.016572 -0.631 0 0 0 167 137 161
0.00117996 0.0153395 -0.629 0 0 0 158 123 155
0.00117996 0.0141595 -0.629 0 0 0 123 87 115
0.00117996 0.0129796 -0.629 0 0 0 79 41 64
0.00117808 0.0117808 -0.628 0 0 0 71 38 49
0.00117808 0.0106028 -0.628 0 0 0 83 53 61
0.00117621 0.00940966 -0.627 0 0 0 70 42 56
0.00117621 0.00823345 -0.627 0 0 0 83 56 71
0.00117433 0.00704599 -0.626 0 0 0 108 84 98
0.00117246 0.00586228 -0.625 0 0 0 125 101 114
0.00117246 0.00468982 -0.625 0 0 0 123 98 102
0.00117058 0.00351174 -0.624 0 0 0 118 92 95
0.00117058 0.00234116 -0.624 0 0 0 118 89 93
0.0011687 0.0011687 -0.623 0 0 0 115 83 96
0.00116683 0 -0.622 0 0 0 100 66 93
0.00116308 -0.00116308 -0.62 0 0 0 92 58 82
0.00116683 -0.00233366 -0.622 0 0 0 85 53 54
0.00116308 -0.00348923 -0.62 0 0 0 84 53 35
0.00116308 -0.0046523 -0.62 0 0 0 86 52 25
0.00116308 -0.00581538 -0.62 0 0 0 86 49 20
0.0011612 -0.0069672 -0.619 0 0 0 87 47 21
0.0011612 -0.0081284 -0.619 0 0 0 88 48 22
0.0011612 -0.0092896 -0.619 0 0 0 87 45 20
0.00115932 -0.0104339 -0.618 0 0 0 87 45 21
0.00115932 -0.0115932 -0.618 0 0 0 92 49 30
0.00115745 -0.0127319 -0.617 0 0 0 93 49 36
0.00115557 -0.0138669 -0.616 0 0 0 101 57 54
0.0011537 -0.0149981 -0.615 0 0 0 108 66 68
0.0011537 -0.0161517 -0.615 0 0 0 137 96 102
0.0011537 -0.0173054 -0.615 0 0 0 146 106 117
0.00115557 -0.0184892 -0.616 0 0 0 157 123 139
0.00115745 -0.0196766 -0.617 0 0 0 173 138 158
0.00115932 -0.0208678 -0.618 0 0 0 185 143 167
0.00116308 -0.0220984 -0.62 0 0 0 186 140 168
0.00116683 -0.0233366 -0.622 0 0 0 186 137 167
0.00117058 -0.0245822 -0.624 0 0 0 189 139 174
0.00117058 -0.0257528 -0.624 0 0 0 142 90 128
0.00117058 -0.0269233 -0.624 0 0 0 91 35 72
0.00244621 0.0795019 -0.652 0 0 0 102 72 82
0.00244621 0.0782788 -0.652 0 0 0 156 125 140
0.00244621 0.0770557 -0.652 0 0 0 167 134 151
0.00244621 0.0758326 -0.652 0 0 0 137 102 122
0.00244621 0.0746094 -0.652 0 0 0 121 84 102
0.00244246 0.0732738 -0.651 0 0 0 123 85 98
0.00244246 0.0720526 -0.651 0 0 0 130 90 101
0.00243871 0.0707225 -0.65 0 0 0 131 90 106
0.00243871 0.0695032 -0.65 0 0 0 145 104 122
0.00243871 0.0682838 -0.65 0 0 0 148 107 125
0.0024312 0.0668581 -0.648 0 0 0 144 106 121
0.0024312 0.0656425 -0.648 0 0 0 140 103 111
0.0024312 0.0644269 -0.648 0 0 0 135 98 105
0.00242745 0.0631138 -0.647 0 0 0 136 99 107
0.00242745 0.0619 -0.647 0 0 0 145 105 113
0.00242745 0.0606863 -0.647 0 0 0 148 109 110
0.0024237 0.0593807 -0.646 0 0 0 148 107 113
0.00241995 0.0580788 -0.645 0 0 0 150 108 128
0.00241995 0.0568688 -0.645 0 0 0 156 117 136
0.0024162 0.0555725 -0.644 0 0 0 161 125 129
0.0024162 0.0543644 -0.644 0 0 0 163 127 127
0.0024162 0.0531563 -0.644 0 0 0 170 130 138
0.00240869 0.0517869 -0.642 0 0 0 171 134 142
0.00240869 0.0505826 -0.642 0 0 0 163 130 137
0.00240869 0.0493782 -0.642 0 0 0 157 124 131
0.00240869 0.0481739 -0.642 0 0 0 144 108 118
0.00240869 0.0469695 -0.642 0 0 0 114 77 94
0.00240869 0.0457652 -0.642 0 0 0 95 62 89
0.00240119 0.044422 -0.64 0 0 0 42 7 47
0.00240119 0.0432214 -0.64 0 0 0 27 0 40
0.00239744 0.0419552 -0.639 0 0 0 46 8 55
0.00239744 0.0407564 -0.639 0 0 0 56 23 50
0.00239369 0.0394958 -0.638 0 0 0 72 40 53
0.00239369 0.038299 -0.638 0 0 0 100 64 68
0.00239744 0.0371603 -0.639 0 0 0 66 32 33
0.00239369 0.0359053 -0.638 0 0 0 36 9 14
0.00239369 0.0347084 -0.638 0 0 0 31 10 17
0.00239369 0.0335116 -0.638 0 0 0 25 8 16
0.00238618 0.0322134 -0.636 0 0 0 21 2 8
0.00238243 0.0309716 -0.635 0 0 0 26 4 6
0.00237868 0.0297335 -0.634 0 0 0 38 14 12
0.00237868 0.0285441 -0.634 0 0 0 47 23 19
0.00237868 0.0273548 -0.634 0 0 0 54 30 28
0.00237868 0.0261655 -0.634 0 0 0 54 34 35
0.00237868 0.0249761 -0.634 0 0 0 42 22 24
0.00237493 0.0237493 -0.633 0 0 0 32 7 11
0.00237493 0.0225618 -0.633 0 0 0 35 4 9
0.00237493 0.0213743 -0.633 0 0 0 66 27 30
0.00237493 0.0201869 -0.633 0 0 0 112 73 74
0.00236742 0.0189394 -0.631 0 0 0 158 131 124
0.00236742 0.0177557 -0.631 0 0 0 148 124 122
0.00235992 0.0165194 -0.629 0 0 0 154 123 138
0.00235992 0.0153395 -0.629 0 0 0 133 99 123
0.00235992 0.0141595 -0.629 0 0 0 116 81 103
0.00235617 0.0129589 -0.628 0 0 0 97 60 78
0.00235617 0.0117808 -0.628 0 0 0 68 35 44
0.00235241 0.0105859 -0.627 0 0 0 84 53 59
0.00234866 0.00939465 -0.626 0 0 0 107 77 87
0.00234866 0.00822032 -0.626 0 0 0 119 93 106
0.00234491 0.00703473 -0.625 0 0 0 136 112 125
0.00234491 0.00586228 -0.625 0 0 0 140 117 125
0.00234491 0.00468982 -0.625 0 0 0 128 103 106
0.00234116 0.00351174 -0.624 0 0 0 122 93 95
0.00234116 0.00234116 -0.624 0 0 0 120 90 92
0.00233741 0.0011687 -0.623 0 0 0 116 84 95
0.00233366 0 -0.622 0 0 0 100 67 94
0.00233366 -0.00116683 -0.622 0 0 0 92 60 84
0.00232615 -0.00232615 -0.62 0 0 0 86 55 60
0.00232615 -0.00348923 -0.62 0 0 0 84 54 43
0.00232615 -0.0046523 -0.62 0 0 0 84 52 29
0.00231865 -0.00579662 -0.618 0 0 0 84 50 23
0.00231865 -0.00695594 -0.618 0 0 0 86 50 28
0.00231865 -0.00811527 -0.618 0 0 0 89 50 33
0.00231865 -0.00927459 -0.618 0 0 0 88 46 34
0.0023149 -0.010417 -0.617 0 0 0 90 47 38
0.0023149 -0.0115745 -0.617 0 0 0 95 52 43
0.00231114 -0.0127113 -0.616 0 0 0 94 53 47
0.00231114 -0.0138669 -0.616 0 0 0 103 63 63
0.00231114 -0.0150224 -0.616 0 0 0 113 72 80
0.00231114 -0.016178 -0.616 0 0 0 140 99 117
0.00231114 -0.0173336 -0.616 0 0 0 148 108 132
0.0023149 -0.0185192 -0.617 0 0 0 171 131 158
0.0023149 -0.0196766 -0.617 0 0 0 171 132 159
0.0023224 -0.0209016 -0.619 0 0 0 183 145 170
0.00233366 -0.0221697 -0.622 0 0 0 187 147 173
0.00233741 -0.0233741 -0.623 0 0 0 187 140 174
0.00234116 -0.0245822 -0.624 0 0 0 154 101 143
0.00234116 -0.0257528 -0.624 0 0 0 78 20 70
0.00234116 -0.0269233 -0.624 0 0 0 70 13 56
0.00366932 0.080725 -0.652 0 0 0 98 67 73
0.00366932 0.0795019 -0.652 0 0 0 162 129 136
0.00366932 0.0782788 -0.652 0 0 0 160 127 134
0.00366932 0.0770557 -0.652 0 0 0 152 119 130
0.00366369 0.0757162 -0.651 0 0 0 130 92 113
0.00366369 0.074495 -0.651 0 0 0 128 88 112
0.00366369 0.0732738 -0.651 0 0 0 122 81 99
0.00365806 0.0719419 -0.65 0 0 0 126 85 101
0.00365806 0.0707225 -0.65 0 0 0 135 94 112
0.00364681 0.0692893 -0.648 0 0 0 145 104 122
0.00364681 0.0680737 -0.648 0 0 0 150 109 125
0.00364681 0.0668581 -0.648 0 0 0 152 112 123
0.00364681 0.0656425 -0.648 0 0 0 147 107 115
0.00364681 0.0644269 -0.648 0 0 0 140 101 106
0.00364118 0.0631138 -0.647 0 0 0 140 100 109
0.00363555 0.0618044 -0.646 0 0 0 145 106 111
0.00363555 0.0605925 -0.646 0 0 0 152 112 110
0.00363555 0.0593807 -0.646 0 0 0 154 114 114
0.00362992 0.0580788 -0.645 0 0 0 149 108 122
0.00362429 0.0567806 -0.644 0 0 0 162 124 139
0.00362429 0.0555725 -0.644 0 0 0 166 130 132
0.00361304 0.0541956 -0.642 0 0 0 160 124 124
0.00361304 0.0529912 -0.642 0 0 0 158 122 126
0.00361304 0.0517869 -0.642 0 0 0 152 115 123
0.00361304 0.0505826 -0.642 0 0 0 137 104 115
0.00361304 0.0493782 -0.642 0 0 0 131 97 111
0.00361304 0.0481739 -0.642 0 0 0 114 77 94
0.00361304 0.0469695 -0.642 0 0 0 60 22 43
0.00360741 0.0456939 -0.641 0 0 0 36 2 27
0.00360178 0.044422 -0.64 0 0 0 23 0 21
0.00359616 0.0431539 -0.639 0 0 0 24 0 28
0.00359616 0.0419552 -0.639 0 0 0 44 8 44
0.00359053 0.0406926 -0.638 0 0 0 57 23 48
0.00359053 0.0394958 -0.638 0 0 0 65 33 48
0.00359053 0.038299 -0.638 0 0 0 77 44 51
0.00359053 0.0371021 -0.638 0 0 0 64 35 40
0.00359053 0.0359053 -0.638 0 0 0 36 13 21
0.00359053 0.0347084 -0.638 0 0 0 24 4 13
0.00359053 0.0335116 -0.638 0 0 0 26 9 17
0.00357927 0.0322134 -0.636 0 0 0 24 8 11
0.00357364 0.0309716 -0.635 0 0 0 30 9 8
0.00357364 0.0297804 -0.635 0 0 0 48 22 21
0.00356802 0.0285441 -0.634 0 0 0 47 22 18
0.00356802 0.0273548 -0.634 0 0 0 61 36 32
0.00356239 0.0261242 -0.633 0 0 0 75 51 51
0.00356239 0.0249367 -0.633 0 0 0 72 48 48
0.00356239 0.0237493 -0.633 0 0 0 56 27 29
0.00356239 0.0225618 -0.633 0 0 0 43 12 10
0.00356239 0.0213743 -0.633 0 0 0 74 35 30
0.00355676 0.020155 -0.632 0 0 0 128 90 81
0.00355113 0.0189394 -0.631 0 0 0 153 125 111
0.00353988 0.0176994 -0.629 0 0 0 149 124 117
0.00353988 0.0165194 -0.629 0 0 0 129 98 106
0.00353988 0.0153395 -0.629 0 0 0 122 88 105
0.00353425 0.014137 -0.628 0 0 0 115 78 96
0.00353425 0.0129589 -0.628 0 0 0 97 61 75
0.00353425 0.0117808 -0.628 0 0 0 99 66 73
0.00352862 0.0105859 -0.627 0 0 0 102 71 77
0.00352299 0.00939465 -0.626 0 0 0 138 108 118
0.00352299 0.00822032 -0.626 0 0 0 140 112 126
0.00351737 0.00703473 -0.625 0 0 0 141 115 128
0.00351737 0.00586228 -0.625 0 0 0 134 108 117
0.00351174 0.00468232 -0.624 0 0 0 123 97 100
0.00351174 0.00351174 -0.624 0 0 0 121 92 94
0.00350611 0.00233741 -0.623 0 0 0 119 89 91
0.00350048 0.00116683 -0.622 0 0 0 114 83 91
0.00348923 -5.55112e-017 -0.62 0 0 0 99 70 92
0.00348923 -0.00116308 -0.62 0 0 0 92 63 83
0.00348923 -0.00232615 -0.62 0 0 0 87 58 62
0.0034836 -0.0034836 -0.619 0 0 0 84 56 45
0.0034836 -0.0046448 -0.619 0 0 0 81 53 29
0.00347797 -0.00579662 -0.618 0 0 0 82 51 23
0.00347797 -0.00695594 -0.618 0 0 0 85 50 30
0.00347797 -0.00811527 -0.618 0 0 0 88 52 38
0.00347234 -0.00925959 -0.617 0 0 0 87 48 43
0.00347234 -0.010417 -0.617 0 0 0 92 52 52
0.00347234 -0.0115745 -0.617 0 0 0 97 57 55
0.00347234 -0.0127319 -0.617 0 0 0 100 60 58
0.00346672 -0.0138669 -0.616 0 0 0 112 73 74
0.00346672 -0.0150224 -0.616 0 0 0 118 81 89
0.00347234 -0.0162043 -0.617 0 0 0 143 103 127
0.00347234 -0.0173617 -0.617 0 0 0 151 110 142
0.00347234 -0.0185192 -0.617 0 0 0 168 124 159
0.0034836 -0.0197404 -0.619 0 0 0 176 135 167
0.00348923 -0.0209354 -0.62 0 0 0 185 150 172
0.00350048 -0.0221697 -0.622 0 0 0 188 150 173
0.00350611 -0.0233741 -0.623 0 0 0 181 136 169
0.00351737 -0.0246216 -0.625 0 0 0 129 76 120
0.00351737 -0.025794 -0.625 0 0 0 51 0 46
0.00351737 -0.0269665 -0.625 0 0 0 70 13 58
0.00489242 0.080725 -0.652 0 0 0 152 120 125
0.00489242 0.0795019 -0.652 0 0 0 160 125 131
0.00488492 0.0781587 -0.651 0 0 0 156 119 126
0.00488492 0.0769375 -0.651 0 0 0 148 111 119
0.00488492 0.0757162 -0.651 0 0 0 132 94 109
0.00487742 0.0743806 -0.65 0 0 0 137 96 114
0.00487742 0.0731612 -0.65 0 0 0 126 85 103
0.00487742 0.0719419 -0.65 0 0 0 126 83 100
0.00486241 0.0705049 -0.648 0 0 0 134 92 104
0.00486241 0.0692893 -0.648 0 0 0 145 102 112
0.00486241 0.0680737 -0.648 0 0 0 155 111 124
0.00486241 0.0668581 -0.648 0 0 0 155 113 125
0.0048549 0.0655412 -0.647 0 0 0 150 107 124
0.0048549 0.0643275 -0.647 0 0 0 146 103 120
0.0048549 0.0631138 -0.647 0 0 0 148 106 118
0.0048474 0.0618044 -0.646 0 0 0 151 110 116
0.0048474 0.0605925 -0.646 0 0 0 150 111 106
0.0048399 0.0592887 -0.645 0 0 0 150 113 104
0.00483239 0.0579887 -0.644 0 0 0 144 109 103
0.00481739 0.0566043 -0.642 0 0 0 134 99 97
0.00481739 0.0553999 -0.642 0 0 0 125 86 89
0.00481739 0.0541956 -0.642 0 0 0 119 82 90
0.00480988 0.0529087 -0.641 0 0 0 103 70 81
0.00480988 0.0517062 -0.641 0 0 0 71 37 54
0.00480988 0.0505038 -0.641 0 0 0 58 18 45
0.00480988 0.0493013 -0.641 0 0 0 67 27 53
0.00480988 0.0480988 -0.641 0 0 0 86 52 68
0.00480988 0.0468963 -0.641 0 0 0 58 26 39
0.00480238 0.0456226 -0.64 0 0 0 37 0 20
0.00479487 0.0443526 -0.639 0 0 0 38 0 23
0.00479487 0.0431539 -0.639 0 0 0 35 3 18
0.00479487 0.0419552 -0.639 0 0 0 41 9 20
0.00478737 0.0406926 -0.638 0 0 0 56 24 29
0.00478737 0.0394958 -0.638 0 0 0 64 33 38
0.00478737 0.038299 -0.638 0 0 0 50 20 32
0.00478737 0.0371021 -0.638 0 0 0 61 34 51
0.00478737 0.0359053 -0.638 0 0 0 56 35 52
0.00478737 0.0347084 -0.638 0 0 0 40 22 38
0.00478737 0.0335116 -0.638 0 0 0 27 11 24
0.00477236 0.0322134 -0.636 0 0 0 18 1 9
0.00476486 0.0309716 -0.635 0 0 0 25 3 5
0.00475736 0.0297335 -0.634 0 0 0 44 18 17
0.00475736 0.0285441 -0.634 0 0 0 45 17 14
0.00475736 0.0273548 -0.634 0 0 0 55 27 24
0.00475736 0.0261655 -0.634 0 0 0 73 48 44
0.00474985 0.0249367 -0.633 0 0 0 83 55 51
0.00474985 0.0237493 -0.633 0 0 0 79 50 42
0.00474985 0.0225618 -0.633 0 0 0 70 38 25
0.00474235 0.0213406 -0.632 0 0 0 75 39 17
0.00474235 0.020155 -0.632 0 0 0 98 62 38
0.00471984 0.0188793 -0.629 0 0 0 152 124 103
0.00471984 0.0176994 -0.629 0 0 0 134 106 95
0.00471984 0.0165194 -0.629 0 0 0 110 78 83
0.00471984 0.0153395 -0.629 0 0 0 91 55 69
0.00471233 0.014137 -0.628 0 0 0 91 54 71
0.00470483 0.0129383 -0.627 0 0 0 106 68 83
0.00470483 0.0117621 -0.627 0 0 0 120 84 94
0.00469733 0.010569 -0.626 0 0 0 130 97 108
0.00468982 0.00937964 -0.625 0 0 0 152 120 135
0.00468982 0.00820719 -0.625 0 0 0 146 118 133
0.00468982 0.00703473 -0.625 0 0 0 138 110 125
0.00468232 0.0058529 -0.624 0 0 0 127 99 111
0.00468232 0.00468232 -0.624 0 0 0 121 94 101
0.00467482 0.00350611 -0.623 0 0 0 123 94 98
0.00467482 0.00233741 -0.623 0 0 0 120 89 94
0.00466731 0.00116683 -0.622 0 0 0 112 81 89
0.0046523 -5.55112e-017 -0.62 0 0 0 99 73 86
0.0046523 -0.00116308 -0.62 0 0 0 91 68 76
0.0046523 -0.00232615 -0.62 0 0 0 86 62 60
0.0046448 -0.0034836 -0.619 0 0 0 82 59 45
0.0046448 -0.0046448 -0.619 0 0 0 80 56 28
0.0046448 -0.005806 -0.619 0 0 0 79 52 22
0.0046373 -0.00695594 -0.618 0 0 0 83 53 29
0.00462979 -0.00810214 -0.617 0 0 0 87 54 39
0.00462979 -0.00925959 -0.617 0 0 0 89 51 50
0.00462979 -0.010417 -0.617 0 0 0 94 55 60
0.00462979 -0.0115745 -0.617 0 0 0 95 59 59
0.00462979 -0.0127319 -0.617 0 0 0 98 63 61
0.00462979 -0.0138894 -0.617 0 0 0 115 80 78
0.00462979 -0.0150468 -0.617 0 0 0 124 89 95
0.0046373 -0.0162305 -0.618 0 0 0 148 110 133
0.0046373 -0.0173899 -0.618 0 0 0 155 114 148
0.0046448 -0.0185792 -0.619 0 0 0 176 130 169
0.00466731 -0.0198361 -0.622 0 0 0 178 134 167
0.00467482 -0.0210367 -0.623 0 0 0 187 150 167
0.00467482 -0.0222054 -0.623 0 0 0 194 157 174
0.00468232 -0.0234116 -0.624 0 0 0 163 118 151
0.00468982 -0.0246216 -0.625 0 0 0 105 53 99
0.00468982 -0.025794 -0.625 0 0 0 61 4 55
0.00468982 -0.0269665 -0.625 0 0 0 80 28 67
0.00468982 -0.0281389 -0.625 0 0 0 117 76 82
0.00611553 0.0819481 -0.652 0 0 0 143 112 117
0.00611553 0.080725 -0.652 0 0 0 165 130 136
0.00611553 0.0795019 -0.652 0 0 0 156 116 124
0.00610615 0.0781587 -0.651 0 0 0 154 115 120
0.00610615 0.0769375 -0.651 0 0 0 153 113 121
0.00610615 0.0757162 -0.651 0 0 0 132 92 101
0.00609677 0.0743806 -0.65 0 0 0 133 93 104
0.00609677 0.0731612 -0.65 0 0 0 130 89 105
0.00607801 0.0717205 -0.648 0 0 0 129 87 101
0.00607801 0.0705049 -0.648 0 0 0 131 90 96
0.00607801 0.0692893 -0.648 0 0 0 147 105 107
0.00607801 0.0680737 -0.648 0 0 0 162 120 122
0.00606863 0.0667549 -0.647 0 0 0 160 117 126
0.00606863 0.0655412 -0.647 0 0 0 154 111 128
0.00606863 0.0643275 -0.647 0 0 0 157 114 133
0.00605925 0.0630162 -0.646 0 0 0 164 121 138
0.00605925 0.0618044 -0.646 0 0 0 160 118 130
0.00605925 0.0605925 -0.646 0 0 0 148 109 114
0.00604049 0.0591968 -0.644 0 0 0 142 103 106
0.00604049 0.0579887 -0.644 0 0 0 114 80 79
0.00602173 0.0566043 -0.642 0 0 0 98 64 63
0.00602173 0.0553999 -0.642 0 0 0 79 43 47
0.00601235 0.0541112 -0.641 0 0 0 66 31 38
0.00601235 0.0529087 -0.641 0 0 0 55 22 29
0.00601235 0.0517062 -0.641 0 0 0 41 8 19
0.00601235 0.0505038 -0.641 0 0 0 38 0 18
0.00600297 0.0492244 -0.64 0 0 0 41 2 23
0.00600297 0.0480238 -0.64 0 0 0 76 42 58
0.00600297 0.0468232 -0.64 0 0 0 78 44 60
0.00600297 0.0456226 -0.64 0 0 0 43 6 24
0.00599359 0.0443526 -0.639 0 0 0 41 4 21
0.00599359 0.0431539 -0.639 0 0 0 48 15 26
0.00599359 0.0419552 -0.639 0 0 0 53 20 29
0.00598421 0.0406926 -0.638 0 0 0 57 24 33
0.00598421 0.0394958 -0.638 0 0 0 63 31 44
0.00598421 0.038299 -0.638 0 0 0 52 25 42
0.00598421 0.0371021 -0.638 0 0 0 46 25 44
0.00598421 0.0359053 -0.638 0 0 0 49 30 49
0.00598421 0.0347084 -0.638 0 0 0 44 27 45
0.00596545 0.0334065 -0.636 0 0 0 31 13 27
0.00594669 0.0321122 -0.634 0 0 0 29 9 18
0.00594669 0.0309228 -0.634 0 0 0 39 14 17
0.00593732 0.0296866 -0.633 0 0 0 43 15 12
0.00593732 0.0284991 -0.633 0 0 0 49 19 17
0.00593732 0.0273116 -0.633 0 0 0 52 22 20
0.00593732 0.0261242 -0.633 0 0 0 61 33 30
0.00593732 0.0249367 -0.633 0 0 0 64 35 31
0.00593732 0.0237493 -0.633 0 0 0 70 40 30
0.00593732 0.0225618 -0.633 0 0 0 82 51 33
0.00592794 0.0213406 -0.632 0 0 0 89 53 27
0.00591856 0.0201231 -0.631 0 0 0 91 55 29
0.00589042 0.0188493 -0.628 0 0 0 100 69 48
0.00589042 0.0176713 -0.628 0 0 0 116 86 75
0.00589042 0.0164932 -0.628 0 0 0 92 57 61
0.00588104 0.0152907 -0.627 0 0 0 87 49 62
0.00587166 0.014092 -0.626 0 0 0 77 38 56
0.00587166 0.0129176 -0.626 0 0 0 81 42 60
0.00586228 0.0117246 -0.625 0 0 0 133 96 113
0.00586228 0.0105521 -0.625 0 0 0 142 108 124
0.00586228 0.00937964 -0.625 0 0 0 149 116 137
0.0058529 0.00819406 -0.624 0 0 0 146 114 135
0.0058529 0.00702348 -0.624 0 0 0 139 107 128
0.0058529 0.0058529 -0.624 0 0 0 131 100 118
0.0058529 0.00468232 -0.624 0 0 0 126 96 108
0.00584352 0.00350611 -0.623 0 0 0 124 92 103
0.00584352 0.00233741 -0.623 0 0 0 118 85 96
0.00583414 0.00116683 -0.622 0 0 0 109 77 88
0.00581538 -5.55112e-017 -0.62 0 0 0 101 75 86
0.00581538 -0.00116308 -0.62 0 0 0 92 71 76
0.005806 -0.0023224 -0.619 0 0 0 86 65 62
0.005806 -0.0034836 -0.619 0 0 0 84 62 51
0.005806 -0.0046448 -0.619 0 0 0 81 59 36
0.00579662 -0.00579662 -0.618 0 0 0 80 56 30
0.00578724 -0.00694469 -0.617 0 0 0 83 54 36
0.00578724 -0.00810214 -0.617 0 0 0 88 55 46
0.00578724 -0.00925959 -0.617 0 0 0 91 56 60
0.00578724 -0.010417 -0.617 0 0 0 93 57 67
0.00578724 -0.0115745 -0.617 0 0 0 92 57 63
0.00579662 -0.0127526 -0.618 0 0 0 94 59 63
0.00579662 -0.0139119 -0.618 0 0 0 115 81 82
0.00579662 -0.0150712 -0.618 0 0 0 129 93 103
0.005806 -0.0162568 -0.619 0 0 0 151 116 140
0.005806 -0.017418 -0.619 0 0 0 159 119 153
0.00581538 -0.0186092 -0.62 0 0 0 184 140 175
0.00584352 -0.019868 -0.623 0 0 0 181 137 164
0.0058529 -0.0210704 -0.624 0 0 0 189 149 158
0.0058529 -0.022241 -0.624 0 0 0 182 142 151
0.00586228 -0.0234491 -0.625 0 0 0 113 68 97
0.00586228 -0.0246216 -0.625 0 0 0 72 24 62
0.00586228 -0.025794 -0.625 0 0 0 79 31 71
0.00586228 -0.0269665 -0.625 0 0 0 99 53 79
0.00586228 -0.0281389 -0.625 0 0 0 116 76 76
0.00733863 0.0831712 -0.652 0 0 0 143 114 119
0.00733863 0.0819481 -0.652 0 0 0 161 126 133
0.00733863 0.080725 -0.652 0 0 0 159 119 128
0.00733863 0.0795019 -0.652 0 0 0 162 122 131
0.00732738 0.0781587 -0.651 0 0 0 152 112 120
0.00732738 0.0769375 -0.651 0 0 0 152 113 118
0.00732738 0.0757162 -0.651 0 0 0 130 94 98
0.00731612 0.0743806 -0.65 0 0 0 128 91 99
0.00731612 0.0731612 -0.65 0 0 0 124 86 99
0.00729361 0.0717205 -0.648 0 0 0 128 88 97
0.00729361 0.0705049 -0.648 0 0 0 131 93 90
0.00729361 0.0692893 -0.648 0 0 0 142 104 95
0.00729361 0.0680737 -0.648 0 0 0 151 113 102
0.00728236 0.0667549 -0.647 0 0 0 151 112 107
0.00728236 0.0655412 -0.647 0 0 0 148 106 116
0.00728236 0.0643275 -0.647 0 0 0 147 104 123
0.00728236 0.0631138 -0.647 0 0 0 137 95 115
0.0072711 0.0618044 -0.646 0 0 0 106 64 88
0.0072711 0.0605925 -0.646 0 0 0 68 27 57
0.00724859 0.0591968 -0.644 0 0 0 50 10 44
0.00722608 0.0578086 -0.642 0 0 0 52 12 46
0.00722608 0.0566043 -0.642 0 0 0 52 16 42
0.00721482 0.0553136 -0.641 0 0 0 45 13 24
0.00721482 0.0541112 -0.641 0 0 0 34 4 4
0.00721482 0.0529087 -0.641 0 0 0 43 10 3
0.00720357 0.0516256 -0.64 0 0 0 66 34 23
0.00720357 0.050425 -0.64 0 0 0 74 46 34
0.00719231 0.0491475 -0.639 0 0 0 66 37 33
0.00719231 0.0479487 -0.639 0 0 0 49 10 29
0.00719231 0.04675 -0.639 0 0 0 59 19 45
0.00719231 0.0455513 -0.639 0 0 0 41 8 27
0.00719231 0.0443526 -0.639 0 0 0 49 16 35
0.00719231 0.0431539 -0.639 0 0 0 54 16 41
0.00718106 0.0418895 -0.638 0 0 0 58 19 50
0.00718106 0.0406926 -0.638 0 0 0 53 12 52
0.00718106 0.0394958 -0.638 0 0 0 57 23 58
0.00718106 0.038299 -0.638 0 0 0 78 53 74
0.00718106 0.0371021 -0.638 0 0 0 61 40 55
0.00718106 0.0359053 -0.638 0 0 0 55 37 51
0.00715854 0.0345996 -0.636 0 0 0 60 42 54
0.00715854 0.0334065 -0.636 0 0 0 70 50 59
0.00713603 0.0321122 -0.634 0 0 0 85 64 69
0.00712478 0.030874 -0.633 0 0 0 93 67 68
0.00712478 0.0296866 -0.633 0 0 0 85 57 56
0.00712478 0.0284991 -0.633 0 0 0 69 39 39
0.00712478 0.0273116 -0.633 0 0 0 57 25 28
0.00711352 0.0260829 -0.632 0 0 0 55 24 30
0.00711352 0.0248973 -0.632 0 0 0 49 18 23
0.00711352 0.0237117 -0.632 0 0 0 46 15 13
0.00711352 0.0225262 -0.632 0 0 0 63 30 21
0.00707976 0.0212393 -0.629 0 0 0 77 44 25
0.00707976 0.0200593 -0.629 0 0 0 79 47 26
0.0070685 0.0188493 -0.628 0 0 0 55 22 7
0.00705724 0.0176431 -0.627 0 0 0 70 35 29
0.00705724 0.0164669 -0.627 0 0 0 85 49 53
0.00705724 0.0152907 -0.627 0 0 0 88 50 63
0.00704599 0.014092 -0.626 0 0 0 88 49 68
0.00703473 0.012897 -0.625 0 0 0 106 66 90
0.00703473 0.0117246 -0.625 0 0 0 136 98 121
0.00703473 0.0105521 -0.625 0 0 0 158 119 146
0.00703473 0.00937964 -0.625 0 0 0 153 117 145
0.00702348 0.00819406 -0.624 0 0 0 148 113 143
0.00702348 0.00702348 -0.624 0 0 0 141 106 136
0.00702348 0.0058529 -0.624 0 0 0 133 99 124
0.00701222 0.00467482 -0.623 0 0 0 130 96 120
0.00701222 0.00350611 -0.623 0 0 0 125 90 112
0.00700097 0.00233366 -0.622 0 0 0 116 81 101
0.00697846 0.00116308 -0.62 0 0 0 108 75 94
0.00697846 -5.55112e-017 -0.62 0 0 0 103 76 91
0.0069672 -0.0011612 -0.619 0 0 0 94 73 82
0.0069672 -0.0023224 -0.619 0 0 0 88 65 71
0.0069672 -0.0034836 -0.619 0 0 0 87 63 63
0.0069672 -0.0046448 -0.619 0 0 0 86 61 54
0.00695594 -0.00579662 -0.618 0 0 0 86 59 50
0.00694469 -0.00694469 -0.617 0 0 0 87 58 52
0.00694469 -0.00810214 -0.617 0 0 0 91 59 60
0.00694469 -0.00925959 -0.617 0 0 0 92 59 70
0.00694469 -0.010417 -0.617 0 0 0 93 59 75
0.00694469 -0.0115745 -0.617 0 0 0 90 56 72
0.00694469 -0.0127319 -0.617 0 0 0 93 59 75
0.00695594 -0.0139119 -0.618 0 0 0 117 83 97
0.00695594 -0.0150712 -0.618 0 0 0 133 99 116
0.0069672 -0.0162568 -0.619 0 0 0 155 119 147
0.00697846 -0.0174461 -0.62 0 0 0 163 124 155
0.00700097 -0.0186692 -0.622 0 0 0 178 135 163
0.00701222 -0.019868 -0.623 0 0 0 194 151 170
0.00702348 -0.0210704 -0.624 0 0 0 188 146 148
0.00703473 -0.0222767 -0.625 0 0 0 139 97 99
0.00704599 -0.0234866 -0.626 0 0 0 73 30 50
0.00703473 -0.0246216 -0.625 0 0 0 77 37 63
0.00703473 -0.025794 -0.625 0 0 0 103 64 83
0.00703473 -0.0269665 -0.625 0 0 0 106 69 76
0.00703473 -0.0281389 -0.625 0 0 0 117 79 70
0.00856174 0.0843943 -0.652 0 0 0 134 107 112
0.00856174 0.0831712 -0.652 0 0 0 157 126 132
0.00856174 0.0819481 -0.652 0 0 0 157 121 131
0.00856174 0.080725 -0.652 0 0 0 164 123 137
0.00856174 0.0795019 -0.652 0 0 0 149 109 120
0.00854861 0.0781587 -0.651 0 0 0 156 116 124
0.00854861 0.0769375 -0.651 0 0 0 150 114 118
0.00853548 0.0755999 -0.65 0 0 0 138 104 105
0.00853548 0.0743806 -0.65 0 0 0 135 101 102
0.00850921 0.0729361 -0.648 0 0 0 117 82 86
0.00850921 0.0717205 -0.648 0 0 0 122 88 89
0.00849608 0.0703961 -0.647 0 0 0 131 96 94
0.00849608 0.0691824 -0.647 0 0 0 127 92 88
0.00849608 0.0679687 -0.647 0 0 0 138 100 97
0.00849608 0.0667549 -0.647 0 0 0 128 87 91
0.00849608 0.0655412 -0.647 0 0 0 108 66 80
0.00849608 0.0643275 -0.647 0 0 0 91 49 69
0.00849608 0.0631138 -0.647 0 0 0 76 34 58
0.00849608 0.0619 -0.647 0 0 0 53 13 39
0.00848295 0.0605925 -0.646 0 0 0 39 0 31
0.00846982 0.0592887 -0.645 0 0 0 41 3 40
0.00845669 0.0579887 -0.644 0 0 0 31 0 38
0.00843043 0.0566043 -0.642 0 0 0 35 1 38
0.00843043 0.0553999 -0.642 0 0 0 41 12 32
0.00841729 0.0541112 -0.641 0 0 0 48 19 23
0.00841729 0.0529087 -0.641 0 0 0 58 28 17
0.00840416 0.0516256 -0.64 0 0 0 80 52 31
0.00840416 0.050425 -0.64 0 0 0 94 70 46
0.00840416 0.0492244 -0.64 0 0 0 92 66 53
0.00840416 0.0480238 -0.64 0 0 0 74 37 54
0.00840416 0.0468232 -0.64 0 0 0 50 11 40
0.00839103 0.0455513 -0.639 0 0 0 42 8 35
0.00839103 0.0443526 -0.639 0 0 0 60 25 55
0.0083779 0.0430863 -0.638 0 0 0 53 14 45
0.0083779 0.0418895 -0.638 0 0 0 61 21 56
0.0083779 0.0406926 -0.638 0 0 0 51 10 52
0.0083779 0.0394958 -0.638 0 0 0 49 15 50
0.0083779 0.038299 -0.638 0 0 0 89 64 83
0.00835164 0.0369858 -0.636 0 0 0 87 67 78
0.00835164 0.0357927 -0.636 0 0 0 78 58 70
0.0083385 0.0345452 -0.635 0 0 0 77 55 67
0.0083385 0.033354 -0.635 0 0 0 95 72 80
0.00832537 0.0321122 -0.634 0 0 0 112 87 91
0.00831224 0.030874 -0.633 0 0 0 109 83 82
0.00831224 0.0296866 -0.633 0 0 0 102 74 73
0.00831224 0.0284991 -0.633 0 0 0 85 55 57
0.00829911 0.0272685 -0.632 0 0 0 55 24 29
0.00829911 0.0260829 -0.632 0 0 0 54 22 33
0.00828598 0.0248579 -0.631 0 0 0 60 29 37
0.00828598 0.0236742 -0.631 0 0 0 53 22 27
0.00828598 0.0224905 -0.631 0 0 0 55 26 22
0.00828598 0.0213068 -0.631 0 0 0 58 30 18
0.00825972 0.0200593 -0.629 0 0 0 58 29 13
0.00824658 0.0188493 -0.628 0 0 0 54 17 8
0.00823345 0.0176431 -0.627 0 0 0 49 10 5
0.00823345 0.0164669 -0.627 0 0 0 60 19 23
0.00822032 0.0152663 -0.626 0 0 0 85 45 56
0.00820719 0.0140695 -0.625 0 0 0 117 75 95
0.00820719 0.012897 -0.625 0 0 0 147 107 131
0.00820719 0.0117246 -0.625 0 0 0 166 127 154
0.00820719 0.0105521 -0.625 0 0 0 174 135 166
0.00819406 0.00936464 -0.624 0 0 0 165 128 161
0.00819406 0.00819406 -0.624 0 0 0 156 119 152
0.00819406 0.00702348 -0.624 0 0 0 142 105 138
0.00819406 0.0058529 -0.624 0 0 0 134 97 128
0.00816779 0.00466731 -0.622 0 0 0 132 96 124
0.00816779 0.00350048 -0.622 0 0 0 128 92 118
0.00814153 0.00232615 -0.62 0 0 0 121 82 109
0.00814153 0.00116308 -0.62 0 0 0 113 79 103
0.0081284 0 -0.619 0 0 0 104 77 94
0.0081284 -0.0011612 -0.619 0 0 0 96 72 86
0.0081284 -0.0023224 -0.619 0 0 0 90 66 79
0.0081284 -0.0034836 -0.619 0 0 0 90 64 75
0.0081284 -0.0046448 -0.619 0 0 0 90 63 68
0.00810214 -0.00578724 -0.617 0 0 0 90 61 65
0.00810214 -0.00694469 -0.617 0 0 0 91 60 65
0.00810214 -0.00810214 -0.617 0 0 0 93 62 68
0.00810214 -0.00925959 -0.617 0 0 0 93 59 73
0.00810214 -0.010417 -0.617 0 0 0 95 61 78
0.00810214 -0.0115745 -0.617 0 0 0 93 58 80
0.00811527 -0.0127526 -0.618 0 0 0 97 62 86
0.0081284 -0.0139344 -0.619 0 0 0 124 89 113
0.0081284 -0.0150956 -0.619 0 0 0 139 104 128
0.00814153 -0.0162831 -0.62 0 0 0 158 122 150
0.00814153 -0.0174461 -0.62 0 0 0 164 126 151
0.00818093 -0.0186993 -0.623 0 0 0 185 144 162
0.00818093 -0.019868 -0.623 0 0 0 191 148 158
0.00822032 -0.021138 -0.626 0 0 0 165 119 119
0.00822032 -0.0223123 -0.626 0 0 0 119 73 75
0.00823345 -0.0235241 -0.627 0 0 0 91 49 63
0.00824658 -0.0247398 -0.628 0 0 0 104 68 82
0.00824658 -0.0259178 -0.628 0 0 0 106 74 77
0.00824658 -0.0270959 -0.628 0 0 0 115 82 75
0.00978485 0.0856174 -0.652 0 0 0 110 85 91
0.00978485 0.0843943 -0.652 0 0 0 139 112 119
0.00978485 0.0831712 -0.652 0 0 0 155 123 134
0.00978485 0.0819481 -0.652 0 0 0 154 118 132
0.00978485 0.080725 -0.652 0 0 0 153 114 132
0.00978485 0.0795019 -0.652 0 0 0 155 114 130
0.00976984 0.0781587 -0.651 0 0 0 150 115 122
0.00976984 0.0769375 -0.651 0 0 0 151 119 122
0.00975483 0.0755999 -0.65 0 0 0 136 106 104
0.00972482 0.0741517 -0.648 0 0 0 120 91 85
0.00972482 0.0729361 -0.648 0 0 0 106 80 67
0.00972482 0.0717205 -0.648 0 0 0 94 65 57
0.00970981 0.0703961 -0.647 0 0 0 81 49 54
0.00970981 0.0691824 -0.647 0 0 0 66 29 46
0.00970981 0.0679687 -0.647 0 0 0 55 15 42
0.00970981 0.0667549 -0.647 0 0 0 53 9 42
0.00970981 0.0655412 -0.647 0 0 0 54 10 43
0.00970981 0.0643275 -0.647 0 0 0 52 9 39
0.00970981 0.0631138 -0.647 0 0 0 39 0 25
0.0096948 0.0618044 -0.646 0 0 0 47 9 30
0.0096948 0.0605925 -0.646 0 0 0 86 55 63
0.00967979 0.0592887 -0.645 0 0 0 74 44 56
0.00966479 0.0579887 -0.644 0 0 0 54 23 54
0.00963477 0.0566043 -0.642 0 0 0 59 27 66
0.00961976 0.0553136 -0.641 0 0 0 54 20 57
0.00961976 0.0541112 -0.641 0 0 0 48 16 40
0.00960476 0.0528262 -0.64 0 0 0 76 52 50
0.00960476 0.0516256 -0.64 0 0 0 66 43 27
0.00960476 0.050425 -0.64 0 0 0 55 26 10
0.00958975 0.0491475 -0.639 0 0 0 76 46 38
0.00958975 0.0479487 -0.639 0 0 0 84 54 64
0.00958975 0.04675 -0.639 0 0 0 55 22 49
0.00958975 0.0455513 -0.639 0 0 0 46 7 52
0.00958975 0.0443526 -0.639 0 0 0 56 14 60
0.00957474 0.0430863 -0.638 0 0 0 61 27 54
0.00957474 0.0418895 -0.638 0 0 0 73 40 57
0.00957474 0.0406926 -0.638 0 0 0 87 53 67
0.00954473 0.039372 -0.636 0 0 0 91 59 70
0.00954473 0.0381789 -0.636 0 0 0 95 69 80
0.00952972 0.0369277 -0.635 0 0 0 107 83 96
0.00952972 0.0357364 -0.635 0 0 0 116 92 106
0.00951471 0.0344908 -0.634 0 0 0 114 88 101
0.00951471 0.0333015 -0.634 0 0 0 110 82 94
0.0094997 0.0320615 -0.633 0 0 0 112 82 90
0.0094997 0.030874 -0.633 0 0 0 109 80 82
0.0094997 0.0296866 -0.633 0 0 0 104 76 75
0.0094847 0.0284541 -0.632 0 0 0 93 64 66
0.0094847 0.0272685 -0.632 0 0 0 76 45 51
0.0094847 0.0260829 -0.632 0 0 0 59 27 40
0.00946969 0.0248579 -0.631 0 0 0 65 33 48
0.00946969 0.0236742 -0.631 0 0 0 92 62 72
0.00946969 0.0224905 -0.631 0 0 0 78 52 55
0.00946969 0.0213068 -0.631 0 0 0 40 17 11
0.00943967 0.0200593 -0.629 0 0 0 50 23 14
0.00942467 0.0188493 -0.628 0 0 0 58 21 13
0.00940966 0.0176431 -0.627 0 0 0 65 24 20
0.00939465 0.0164406 -0.626 0 0 0 71 29 30
0.00937964 0.0152419 -0.625 0 0 0 110 69 77
0.00937964 0.0140695 -0.625 0 0 0 151 110 126
0.00937964 0.012897 -0.625 0 0 0 162 122 146
0.00937964 0.0117246 -0.625 0 0 0 170 131 160
0.00936464 0.0105352 -0.624 0 0 0 172 132 166
0.00936464 0.00936464 -0.624 0 0 0 166 126 160
0.00936464 0.00819406 -0.624 0 0 0 155 115 149
0.00936464 0.00702348 -0.624 0 0 0 141 101 135
0.00934963 0.00584352 -0.623 0 0 0 135 96 127
0.00933462 0.00466731 -0.622 0 0 0 136 97 128
0.00933462 0.00350048 -0.622 0 0 0 133 94 123
0.00930461 0.00232615 -0.62 0 0 0 121 85 113
0.00930461 0.00116308 -0.62 0 0 0 110 76 101
0.0092896 0 -0.619 0 0 0 107 78 100
0.0092896 -0.0011612 -0.619 0 0 0 99 72 91
0.0092896 -0.0023224 -0.619 0 0 0 94 67 84
0.0092896 -0.0034836 -0.619 0 0 0 91 62 80
0.00927459 -0.0046373 -0.618 0 0 0 90 61 79
0.00925959 -0.00578724 -0.617 0 0 0 94 63 79
0.00925959 -0.00694469 -0.617 0 0 0 97 65 78
0.00925959 -0.00810214 -0.617 0 0 0 95 63 74
0.00925959 -0.00925959 -0.617 0 0 0 93 60 71
0.00925959 -0.010417 -0.617 0 0 0 93 59 75
0.00927459 -0.0115932 -0.618 0 0 0 92 54 77
0.0092896 -0.0127732 -0.619 0 0 0 100 61 88
0.0092896 -0.0139344 -0.619 0 0 0 131 92 123
0.00930461 -0.01512 -0.62 0 0 0 150 109 139
0.00933462 -0.0163356 -0.622 0 0 0 155 115 139
0.00936464 -0.0175587 -0.624 0 0 0 178 140 155
0.00936464 -0.0187293 -0.624 0 0 0 191 150 158
0.00939465 -0.0199636 -0.626 0 0 0 178 133 136
0.00940966 -0.0211717 -0.627 0 0 0 106 57 60
0.00940966 -0.0223479 -0.627 0 0 0 90 44 47
0.00940966 -0.0235241 -0.627 0 0 0 113 72 78
0.00940966 -0.0247004 -0.627 0 0 0 108 72 74
0.00942467 -0.0259178 -0.628 0 0 0 113 83 73
0.011008 0.0868405 -0.652 0 0 0 112 87 93
0.011008 0.0856174 -0.652 0 0 0 151 124 131
0.011008 0.0843943 -0.652 0 0 0 162 132 142
0.011008 0.0831712 -0.652 0 0 0 154 122 135
0.011008 0.0819481 -0.652 0 0 0 146 112 128
0.011008 0.080725 -0.652 0 0 0 153 116 134
0.0109911 0.0793799 -0.651 0 0 0 158 120 141
0.0109911 0.0781587 -0.651 0 0 0 162 128 145
0.0109742 0.0768193 -0.65 0 0 0 133 103 113
0.0109742 0.0755999 -0.65 0 0 0 92 66 69
0.0109404 0.0741517 -0.648 0 0 0 70 47 41
0.0109404 0.0729361 -0.648 0 0 0 62 40 26
0.0109404 0.0717205 -0.648 0 0 0 52 30 19
0.0109235 0.0703961 -0.647 0 0 0 39 12 19
0.0109235 0.0691824 -0.647 0 0 0 29 0 19
0.0109235 0.0679687 -0.647 0 0 0 37 0 32
0.0109235 0.0667549 -0.647 0 0 0 38 0 34
0.0109235 0.0655412 -0.647 0 0 0 38 0 27
0.0109235 0.0643275 -0.647 0 0 0 35 0 21
0.0109235 0.0631138 -0.647 0 0 0 34 0 19
0.0109067 0.0618044 -0.646 0 0 0 39 5 19
0.0109067 0.0605925 -0.646 0 0 0 81 53 52
0.0108898 0.0592887 -0.645 0 0 0 91 65 68
0.0108391 0.0578086 -0.642 0 0 0 70 41 61
0.0108222 0.0565161 -0.641 0 0 0 57 27 55
0.0108222 0.0553136 -0.641 0 0 0 53 22 54
0.0108222 0.0541112 -0.641 0 0 0 52 23 45
0.0107885 0.0527436 -0.639 0 0 0 60 39 36
0.0108054 0.0516256 -0.64 0 0 0 61 39 26
0.0107885 0.0503462 -0.639 0 0 0 68 40 28
0.0107885 0.0491475 -0.639 0 0 0 61 32 28
0.0107716 0.0478737 -0.638 0 0 0 63 35 47
0.0107716 0.0466769 -0.638 0 0 0 69 39 67
0.0107716 0.04548 -0.638 0 0 0 52 13 58
0.0107716 0.0442832 -0.638 0 0 0 42 3 47
0.0107378 0.0429513 -0.636 0 0 0 64 30 54
0.0107378 0.0417582 -0.636 0 0 0 87 56 64
0.0107378 0.0405651 -0.636 0 0 0 108 76 77
0.0107209 0.0393101 -0.635 0 0 0 127 97 99
0.0107209 0.0381189 -0.635 0 0 0 127 99 111
0.0107041 0.0368695 -0.634 0 0 0 131 104 121
0.0107041 0.0356802 -0.634 0 0 0 133 102 120
0.0107041 0.0344908 -0.634 0 0 0 123 90 109
0.0106872 0.033249 -0.633 0 0 0 114 82 97
0.0106872 0.0320615 -0.633 0 0 0 113 81 92
0.0106872 0.030874 -0.633 0 0 0 111 82 86
0.0106703 0.0296397 -0.632 0 0 0 108 79 81
0.0106703 0.0284541 -0.632 0 0 0 106 77 79
0.0106703 0.0272685 -0.632 0 0 0 87 58 62
0.0106534 0.0260416 -0.631 0 0 0 68 38 48
0.0106534 0.0248579 -0.631 0 0 0 71 40 55
0.0106534 0.0236742 -0.631 0 0 0 91 63 75
0.0106534 0.0224905 -0.631 0 0 0 79 53 62
0.0106196 0.0212393 -0.629 0 0 0 39 19 20
0.0106196 0.0200593 -0.629 0 0 0 39 15 11
0.0106028 0.0188493 -0.628 0 0 0 50 13 7
0.010569 0.017615 -0.626 0 0 0 75 32 26
0.010569 0.0164406 -0.626 0 0 0 114 70 67
0.0105521 0.0152419 -0.625 0 0 0 146 104 106
0.0105352 0.014047 -0.624 0 0 0 166 126 137
0.0105352 0.0128764 -0.624 0 0 0 174 135 154
0.0105352 0.0117058 -0.624 0 0 0 171 132 159
