# .PCD v0.7 - Point Cloud Data file format
VERSION 0.7
FIELDS x y z normal_x normal_y normal_z curvature
SIZE 4 4 4 4 4 4 4
TYPE F F F F F F F
COUNT 1 1 1 1 1 1 1
WIDTH 570
HEIGHT 1
VIEWPOINT 0 0 0 1 0 0 0
POINTS 570
DATA ascii
-0.013557945 0.040169507 -0.64431852 -0.32195643 0.31470716 0.89292407 0.0060043563
-0.013381674 0.038748085 -0.64374679 -0.32342798 0.31494746 0.8923071 0.0065631904
-0.012892224 0.036991779 -0.64296591 -0.32498202 0.31762701 0.89079183 0.0069837063
-0.01302206 0.03591764 -0.64260459 -0.32851925 0.31552207 0.89024758 0.0084835244
-0.012836205 0.034503143 -0.64203805 -0.33078101 0.3179276 0.88855356 0.0088189635
-0.012962386 0.033420399 -0.64169669 -0.33335805 0.31904796 0.88718671 0.0094252853
-0.012457762 0.031672899 -0.64090139 -0.33515739 0.32401428 0.88470352 0.0096994778
-0.01259295 0.030618371 -0.64052123 -0.33982217 0.32187197 0.88371474 0.011205046
-0.012727727 0.029555522 -0.64014965 -0.34535843 0.32066461 0.88201857 0.013254068
-0.0128621 0.028483015 -0.63979554 -0.35037979 0.32052031 0.88009953 0.015078527
-0.013002275 0.027411008 -0.63944376 -0.35492259 0.31994867 0.87849367 0.016645962
-0.013155267 0.026345769 -0.63907307 -0.35927412 0.31771156 0.8775413 0.018173838
-0.012957783 0.024956951 -0.63849103 -0.36174208 0.31933326 0.87592977 0.019125251
-0.013089194 0.023871843 -0.63817924 -0.36409736 0.32041201 0.8745442 0.019815173
-0.013225287 0.022791391 -0.63786042 -0.36810118 0.32234809 0.87214428 0.020444475
-0.012677036 0.021082826 -0.63703996 -0.36919469 0.32841516 0.86939979 0.019888503
-0.012809443 0.020004867 -0.63672429 -0.3729589 0.33091146 0.86683923 0.020715179
-0.012602724 0.018609934 -0.63614631 -0.37519863 0.33567658 0.8640359 0.020818062
-0.012397847 0.017214924 -0.63555688 -0.37705609 0.34037796 0.86139357 0.020914301
-0.012537106 0.016148642 -0.63523179 -0.38009289 0.34351853 0.858814 0.021267859
-0.012685997 0.015094874 -0.63488865 -0.383598 0.34558052 0.85643578 0.021651344
-0.012843701 0.014050717 -0.63453114 -0.38702607 0.34785199 0.85397857 0.021938842
-0.012659512 0.012683581 -0.6338914 -0.38824734 0.3532691 0.85120165 0.021732347
-0.012818049 0.011644053 -0.63353646 -0.39117542 0.35634387 0.84858459 0.022116566
-0.012637832 0.010282419 -0.63288903 -0.39088807 0.3622565 0.84620881 0.021569675
-0.012820295 0.0092739901 -0.6324836 -0.39526284 0.36217734 0.84422004 0.022064164
-0.012682874 0.007970212 -0.63173503 -0.39925805 0.35792264 0.84417087 0.023532249
-0.012888175 0.0069816313 -0.63128835 -0.4041895 0.3495031 0.84540647 0.025118362
-0.012431194 0.0054182908 -0.63020778 -0.40456724 0.33656806 0.850501 0.02706695
-0.01229384 0.0041498905 -0.62947011 -0.40669775 0.32547408 0.85382974 0.030305211
-0.012477005 0.0031406116 -0.62906867 -0.41030276 0.31378156 0.85656047 0.033102844
-0.012323047 0.0018645017 -0.628389 -0.40809378 0.3018817 0.86192954 0.035912968
-0.01283689 0.0010863917 -0.62827593 -0.41239613 0.28694519 0.8650738 0.039960615
-0.012667058 -0.00019525713 -0.6276263 -0.40811521 0.2716043 0.87204707 0.045094401
-0.012821083 -0.0012556694 -0.62727332 -0.40641314 0.25451139 0.8779645 0.050756738
-0.012313657 -0.0027264222 -0.62639797 -0.39846385 0.23461308 0.88710958 0.055112056
-0.0124705 -0.003774971 -0.62603116 -0.39869276 0.20948333 0.89338648 0.061721638
-0.012289848 -0.0050214478 -0.62547213 -0.39007899 0.1846485 0.90286851 0.065567866
-0.012421312 -0.0060994914 -0.62515718 -0.3872146 0.16064858 0.9089641 0.07074514
-0.012547635 -0.0071908659 -0.62484813 -0.38474011 0.13569166 0.91459084 0.075117044
-0.01234227 -0.0084237643 -0.62435293 -0.38171959 0.10061291 0.92162299 0.079781525
-0.012436076 -0.0095323902 -0.62412363 -0.3773182 0.068498127 0.92772692 0.086554267
-0.012195968 -0.010757068 -0.62371486 -0.37493685 0.027571497 0.9337092 0.091364354
-0.012261781 -0.011879706 -0.62355715 -0.37285784 -0.012177771 0.93861306 0.096884519
-0.012319971 -0.013000013 -0.62341833 -0.37347493 -0.064396366 0.94209087 0.10361179
-0.011717089 -0.014245821 -0.62299639 -0.36666852 -0.1338443 0.94811606 0.10808784
-0.011717328 -0.015352035 -0.62302065 -0.36586934 -0.20183417 0.94949722 0.11357842
-0.01139973 -0.01644819 -0.62290508 -0.37286812 -0.30106962 0.94479358 0.1175115
-0.011374123 -0.017503057 -0.62305653 -0.38685331 -0.40761593 0.93313628 0.12245085
-0.011010475 -0.018435247 -0.62311715 -0.40174553 -0.54971957 0.90758401 0.13010998
-0.010878342 -0.019391069 -0.62354147 -0.42569062 -0.69552189 0.87338257 0.13665755
-0.010712558 -0.020273009 -0.62411106 -0.4476054 -0.85691339 0.82590646 0.14287759
-0.010388104 -0.021034583 -0.62486672 -0.49100864 -1.0501667 0.74657804 0.14928122
-0.010018355 -0.021609988 -0.62561369 -0.53348589 -1.2462766 0.63287413 0.15735349
-0.0097649032 -0.022025386 -0.62622786 -0.54637277 -1.3968763 0.50828892 0.1604429
-0.010516144 0.064021625 -0.6539731 0.55906755 -0.66228002 -0.51028293 0.058076009
-0.010844558 0.063184045 -0.65366858 -0.55669814 0.65594304 0.52256745 0.057770055
-0.011172829 0.062341262 -0.65335006 -0.55297887 0.65117377 0.53533274 0.056604829
-0.011507749 0.061511606 -0.65296435 -0.54619867 0.6425432 0.55241382 0.055283096
-0.011804147 0.06064187 -0.65260297 -0.54128397 0.63481104 0.56831062 0.053993214
-0.01178826 0.059333459 -0.65166175 -0.52297688 0.61054069 0.61049694 0.050048839
-0.012057597 0.058433991 -0.65125269 -0.51358396 0.60014766 0.62850326 0.048509106
-0.012014132 0.057096291 -0.65032566 -0.48963228 0.57062578 0.67277199 0.042980958
-0.012262291 0.056171987 -0.64987081 -0.4777995 0.55612129 0.69134766 0.041547626
-0.011858869 0.054355808 -0.64863658 -0.43335208 0.50036019 0.75589669 0.030973973
-0.012048705 0.053361893 -0.6482386 -0.41796449 0.48003852 0.77583396 0.027725875
-0.012218651 0.05234357 -0.6478557 -0.40360728 0.46240503 0.79279035 0.025206599
-0.012372518 0.051304702 -0.64748573 -0.38941711 0.4427917 0.80977207 0.022283496
-0.012504126 0.05023684 -0.64714187 -0.37382153 0.42115355 0.82764435 0.018531783
-0.012285406 0.048714068 -0.64661092 -0.34674871 0.38277215 0.85665506 0.01249425
-0.012406769 0.047631327 -0.64628291 -0.33836946 0.36873439 0.86589116 0.011188908
-0.012197752 0.046134979 -0.64578253 -0.32458484 0.34490249 0.88073838 0.0081581399
-0.01230119 0.045030817 -0.64549375 -0.3198266 0.334856 0.88633251 0.0066799652
-0.012414903 0.043934423 -0.6451751 -0.31817091 0.32913879 0.88906795 0.0058643473
-0.012236588 0.04248907 -0.64461792 -0.31722909 0.32419661 0.89121813 0.0054120664
-0.012052866 0.041047309 -0.64407849 -0.3175261 0.31809577 0.89330715 0.0048525217
-0.012172195 0.039957598 -0.6437465 -0.31896073 0.31865761 0.89259505 0.0050291908
-0.012301763 0.038873229 -0.64339346 -0.32174379 0.31680685 0.89225918 0.0061802925
-0.011819008 0.037116565 -0.6426121 -0.32352373 0.31916294 0.89077508 0.0067543644
-0.011638672 0.03569901 -0.64204592 -0.32521424 0.32110316 0.88946176 0.0070650983
-0.011769542 0.034629241 -0.64168036 -0.32924807 0.31950665 0.88855833 0.0084373038
-0.011894607 0.03354542 -0.64134502 -0.33088949 0.32110858 0.88736832 0.0087153092
-0.011709523 0.032134067 -0.64077634 -0.33399269 0.32378283 0.88523114 0.0094091734
-0.011530867 0.030733412 -0.64018303 -0.33648521 0.32587692 0.88351864 0.010316935
-0.011675113 0.029681392 -0.63979065 -0.34172559 0.3239381 0.88223934 0.01188922
-0.011814484 0.028613728 -0.63942844 -0.34673691 0.32339635 0.88049316 0.013842739
-0.011961034 0.027547386 -0.63906389 -0.35113403 0.32284784 0.87896132 0.015363901
-0.011775597 0.02616073 -0.63846546 -0.35414869 0.32410249 0.8772881 0.016524807
-0.011927277 0.025098249 -0.63809806 -0.35780492 0.32216614 0.87652957 0.017900083
-0.01206631 0.02402135 -0.63776845 -0.36101156 0.32316872 0.87482822 0.018754428
-0.012207489 0.022946415 -0.63744277 -0.36550048 0.32539412 0.87212557 0.019680412
-0.011669162 0.021244358 -0.63661176 -0.36582512 0.33055213 0.87002736 0.019236937
-0.01146449 0.019847682 -0.63603902 -0.36801088 0.3360073 0.86700207 0.019387484
-0.011263491 0.018453162 -0.63545328 -0.36974534 0.34042686 0.86453503 0.019450184
-0.011401364 0.017386954 -0.63512498 -0.37303075 0.34297481 0.86211491 0.020032998
-0.011541761 0.016324205 -0.63479823 -0.37603518 0.34609288 0.85956132 0.020361191
-0.011690479 0.015272151 -0.63445663 -0.37933114 0.34854928 0.85712278 0.02087258
-0.0115086 0.013903416 -0.63382292 -0.38020736 0.35294741 0.85493261 0.020609304
-0.011664058 0.012861291 -0.63347077 -0.38251033 0.3560867 0.8526091 0.020788832
-0.011822299 0.011824431 -0.63311636 -0.38496539 0.35905886 0.85025913 0.021025768
-0.011646029 0.010466374 -0.63246655 -0.38546288 0.36411163 0.84787911 0.020565895
-0.011828872 0.0094586574 -0.63205957 -0.3896032 0.36489224 0.84564793 0.021301424
-0.01170087 0.0081578232 -0.63129973 -0.39342856 0.35838205 0.84667563 0.022730347
-0.011257043 0.0065854243 -0.63020498 -0.39468613 0.34770858 0.85055494 0.023922451
-0.011125844 0.0053076185 -0.6294716 -0.3943423 0.3387551 0.85434645 0.026357144
-0.011321031 0.0043236073 -0.62903458 -0.39869419 0.32451516 0.85789663 0.030326759
-0.011511345 0.0033144597 -0.62860966 -0.40163055 0.31300914 0.86086673 0.033070877
-0.011357073 0.0020286024 -0.62794083 -0.39672863 0.30230516 0.8669976 0.035904255
-0.011537505 0.0010060288 -0.62752688 -0.39733708 0.28635028 0.87217069 0.040942181
-0.011708497 -3.8278406e-005 -0.62712669 -0.39779532 0.2695494 0.87732655 0.046651945
-0.011200287 -0.0015373781 -0.62628198 -0.38674942 0.25324556 0.88700992 0.051362157
-0.011361707 -0.002577994 -0.62589383 -0.38707677 0.23005272 0.89318818 0.058304798
-0.011187403 -0.0038292943 -0.62532634 -0.37836105 0.20446645 0.90320307 0.062174082
-0.011327097 -0.0048999358 -0.62498325 -0.37474012 0.18230893 0.90954268 0.067724682
-0.011461372 -0.0059868228 -0.62464672 -0.37126246 0.15987614 0.91548568 0.071489036
-0.011576882 -0.0070891813 -0.62434632 -0.36758339 0.13227518 0.92184436 0.077370338
-0.011363432 -0.0083358716 -0.6238898 -0.36076471 0.09960103 0.92968673 0.081619143
-0.011146316 -0.0095676696 -0.62345129 -0.35481554 0.06397178 0.93688941 0.087040067
-0.011222217 -0.010683249 -0.62325251 -0.35097265 0.025963902 0.94264245 0.092603154
-0.010693891 -0.011968604 -0.6226989 -0.34029132 -0.027232524 0.95119369 0.097678609
-0.010732207 -0.013080408 -0.62260002 -0.33650717 -0.076648213 0.95591486 0.10257091
-0.010763519 -0.014188572 -0.62253654 -0.33132887 -0.13604052 0.9599157 0.10945482
-0.010472996 -0.015343616 -0.62237483 -0.32908839 -0.20817953 0.96220458 0.11330014
-0.010490577 -0.016402094 -0.62240529 -0.32977998 -0.30216989 0.95798415 0.11975484
-0.010471171 -0.017470608 -0.62254775 -0.33602342 -0.40533885 0.94849229 0.12386706
-0.010124816 -0.018491823 -0.62264568 -0.34661055 -0.52042747 0.93285334 0.12775397
-0.0098252064 -0.019350728 -0.62277341 -0.35546166 -0.66440588 0.90121436 0.1363986
-0.00965284 -0.020229751 -0.62328762 -0.38113257 -0.82524049 0.85426581 0.14250515
-0.0094406521 -0.021012142 -0.62393385 -0.40860534 -0.99836177 0.78901601 0.14921376
-0.009223327 -0.021638138 -0.62461597 -0.43195987 -1.1812298 0.6975202 0.15376996
-0.0091317231 -0.021939622 -0.62458354 -0.43155032 -1.2855356 0.60347015 0.15174265
-0.0089950627 -0.02240457 -0.62528282 -0.42597514 -1.3974389 0.51526475 0.15399648
-0.0092380242 0.065171264 -0.6540041 0.55662072 -0.66461366 -0.50846624 0.05830149
-0.0095911575 0.064368963 -0.65365261 0.55272621 -0.65570235 -0.52345693 0.058359418
-0.009924789 0.063538954 -0.65333033 -0.55079204 0.64916044 0.5356673 0.057869345
-0.010244093 0.062691011 -0.65299535 -0.54707152 0.64367276 0.54883057 0.056451369
-0.010559659 0.06184053 -0.65261507 -0.54065996 0.63618743 0.56483108 0.055316459
-0.010546478 0.060529228 -0.65166688 -0.52243847 0.61204171 0.60593462 0.052116845
-0.010512084 0.059199661 -0.65078366 -0.50280243 0.58567834 0.64915627 0.046057913
-0.010175136 0.057456955 -0.6495133 -0.46448112 0.53728074 0.71458578 0.03673644
-0.010408603 0.056511693 -0.64910036 -0.44880551 0.51963615 0.7356177 0.033501439
-0.010615998 0.055540681 -0.64868701 -0.4370386 0.50424707 0.75146776 0.032060657
-0.01081684 0.054558177 -0.64827001 -0.42357069 0.48890224 0.76767242 0.030108357
-0.010656304 0.053096049 -0.64764667 -0.38932726 0.44473758 0.80950785 0.021423232
-0.010812286 0.052062254 -0.64727575 -0.37580892 0.42797562 0.82370877 0.019282985
-0.010952911 0.05101015 -0.64692575 -0.36447358 0.41251814 0.83585918 0.017149955
-0.011075647 0.049935337 -0.6466046 -0.35137114 0.39409685 0.84975308 0.014137801
-0.01118299 0.0488405 -0.64630538 -0.33883244 0.37619534 0.86257386 0.011169912
-0.010986125 0.04734984 -0.64578038 -0.32402936 0.35400316 0.87734586 0.0078574428
-0.011101863 0.046261158 -0.64545786 -0.32017976 0.34365612 0.88283092 0.0074775782
-0.011211957 0.045162831 -0.64514726 -0.31698471 0.33525702 0.88720214 0.0066038682
-0.011029866 0.043706354 -0.64460522 -0.31443211 0.32930407 0.89033669 0.0051839552
-0.011148931 0.042617597 -0.64426982 -0.31472802 0.32580772 0.89151615 0.0051107891
-0.010968127 0.041171357 -0.64373195 -0.31513941 0.32003558 0.8934589 0.0045446949
-0.011088203 0.040083181 -0.64339703 -0.31676552 0.32038382 0.89275867 0.0046769059
-0.010616073 0.038314693 -0.64262038 -0.31818372 0.32311416 0.89126968 0.0047371886
-0.010741014 0.03723811 -0.64226866 -0.32175264 0.32169852 0.89050472 0.0060685738
-0.010566029 0.035822812 -0.64169633 -0.32375365 0.32318807 0.88924104 0.0065929014
-0.010388954 0.034412023 -0.64111948 -0.32661188 0.32386529 0.8879503 0.0075101936
-0.010514549 0.033334509 -0.64077681 -0.3284944 0.32480288 0.88691306 0.0079420749
-0.010643965 0.032260124 -0.64042681 -0.33122054 0.32609737 0.88542318 0.0085568521
-0.010467088 0.030855808 -0.63984126 -0.33330536 0.32848477 0.88375741 0.0094627142
-0.010613341 0.029803189 -0.63944954 -0.33770722 0.32720956 0.8825748 0.01071249
-0.010760091 0.028743081 -0.63907152 -0.34241736 0.32633013 0.88109922 0.012453127
-0.010908901 0.027679281 -0.63870281 -0.34706396 0.32641867 0.87926036 0.014051417
-0.011071021 0.026619919 -0.63831764 -0.35270843 0.32458866 0.87771201 0.016103564
-0.010894194 0.025240907 -0.63770533 -0.35417429 0.32482103 0.87703735 0.016919147
-0.01104203 0.024171693 -0.63735861 -0.35836655 0.32558674 0.87504351 0.018019008
-0.010508975 0.022463195 -0.63654482 -0.358174 0.33208093 0.87264371 0.017242437
-0.010653456 0.021400463 -0.63619781 -0.36245978 0.33335745 0.87038654 0.018398251
-0.010789959 0.020329278 -0.63587892 -0.36544034 0.33613175 0.86806262 0.019027615
-0.010256869 0.018617472 -0.63503689 -0.36575586 0.34260634 0.86538482 0.018636981
-0.010395512 0.017553644 -0.63470882 -0.36894256 0.34553891 0.86285943 0.019134343
-0.010533377 0.016490523 -0.63439 -0.37119851 0.34886801 0.86054671 0.01942776
-0.010346672 0.015112926 -0.63377494 -0.37241545 0.35309675 0.85829556 0.019234719
-0.010507451 0.014078548 -0.63340563 -0.37585166 0.35523006 0.85590899 0.019773388
-0.010668473 0.01304417 -0.63304198 -0.37826499 0.35847312 0.8534925 0.020091029
-0.010487024 0.011677471 -0.63241196 -0.37827122 0.36309952 0.85152656 0.019522516
-0.010648589 0.010649014 -0.63204867 -0.37990099 0.3660458 0.84953785 0.019525871
-0.010827752 0.0096387174 -0.63164932 -0.38309696 0.36757657 0.84743822 0.020049801
-0.01070726 0.0083373142 -0.6308803 -0.38708577 0.36112329 0.84840375 0.021708805
-0.010278681 0.0067671742 -0.62976885 -0.38720083 0.34822249 0.85374409 0.023267057
-0.010157215 0.0054956917 -0.62901711 -0.38795242 0.33667442 0.85806072 0.026679931
-0.010350527 0.004498085 -0.6285786 -0.39112231 0.32434911 0.86141318 0.029956041
-0.010542964 0.0034855651 -0.62813836 -0.393132 0.31142598 0.86532074 0.033554383
-0.010392628 0.0021990633 -0.6274581 -0.38825008 0.30016252 0.87152517 0.037003692
-0.01056591 0.0011611336 -0.62704813 -0.38698366 0.28405115 0.87752038 0.042304911
-0.010391063 -0.00012965879 -0.62644231 -0.37948322 0.26859418 0.88563818 0.047577318
-0.010553036 -0.0011851205 -0.62604004 -0.37813658 0.24738702 0.89234412 0.054956418
-0.010393789 -0.002445905 -0.62540311 -0.37374771 0.22586289 0.89981073 0.059439894
-0.010218668 -0.003704519 -0.62484187 -0.36359593 0.20099607 0.90987915 0.064587377
-0.010353873 -0.0047882972 -0.62448764 -0.36098704 0.18105002 0.91522831 0.068086877
-0.010176174 -0.0060292692 -0.6239531 -0.35034844 0.15185685 0.9248445 0.073924266
-0.010275206 -0.007138202 -0.62368667 -0.34587893 0.12618999 0.93096441 0.077377684
-0.010062914 -0.0083809709 -0.62324756 -0.34039971 0.092930704 0.93813252 0.082102299
-0.010145115 -0.0094949603 -0.62302858 -0.3326495 0.058863215 0.94531119 0.088404544
-0.009638818 -0.010806083 -0.62244654 -0.32139027 0.012217477 0.95427793 0.092933312
-0.0096939681 -0.011909072 -0.62230551 -0.31289142 -0.03369863 0.96075565 0.098559193
-0.0094556827 -0.013083887 -0.62202156 -0.30248362 -0.08902707 0.96737999 0.103646
-0.0094787115 -0.014190989 -0.62196952 -0.2987971 -0.14798707 0.97073382 0.10933835
-0.0092779631 -0.015275436 -0.62170774 -0.29185721 -0.23438209 0.97083908 0.11223531
-0.0092796637 -0.016344985 -0.62176007 -0.2913245 -0.31981269 0.96680737 0.11901611
-0.0092479941 -0.017417246 -0.62193155 -0.29203317 -0.41462439 0.95932156 0.12390861
-0.0090180961 -0.018361988 -0.62193704 -0.28824833 -0.5303188 0.94129407 0.13102311
-0.0086644068 -0.019280626 -0.62214381 -0.29904532 -0.65392721 0.91759396 0.13602063
-0.0086415708 -0.020154484 -0.62257206 -0.3038373 -0.79657763 0.88025713 0.14018801
-0.0085323052 -0.020923115 -0.62309653 -0.3160364 -0.95818329 0.82161945 0.14544293
-0.0084994771 -0.021558538 -0.62364227 -0.33308512 -1.1264733 0.73857379 0.14726569
-0.0083715925 -0.02204323 -0.62414628 -0.35068631 -1.2662314 0.63310015 0.15122563
-0.0082254093 -0.022338362 -0.62418276 -0.34843135 -1.3203679 0.55994952 0.15207781
-0.0081388699 -0.022690287 -0.6244958 -0.36665124 -1.3789959 0.45944712 0.15504023
-0.0080119669 -0.02298755 -0.62450755 -0.36277664 -1.377461 0.37152293 0.15716565
-0.0079443576 0.066323914 -0.65402937 0.55492669 -0.66589111 -0.50686783 0.059372216
-0.0083178338 0.065539621 -0.65369642 0.55173856 -0.65927511 -0.52018595 0.058476388
-0.0086657722 0.064713389 -0.65334523 -0.5465095 0.6511215 0.53533739 0.058162667
-0.0086769667 0.063434109 -0.65249127 -0.53739613 0.6332069 0.57011694 0.054826889
-0.0090046292 0.062596731 -0.65208042 -0.52906775 0.62262166 0.58796924 0.053656995
-0.009300462 0.061722569 -0.65170044 -0.52223575 0.61414582 0.60409373 0.051851284
-0.0095850639 0.060840189 -0.65128636 -0.51380008 0.60380912 0.62084514 0.050752614
-0.0095273424 0.059478454 -0.65039527 -0.4937546 0.57589298 0.66330987 0.045266218
-0.0091707269 0.05769686 -0.64912087 -0.45299667 0.52727515 0.72741932 0.035871096
-0.0093845287 0.056735042 -0.64871502 -0.43908691 0.50831461 0.74755746 0.032875795
-0.0095792487 0.055748317 -0.6483134 -0.42727041 0.49275562 0.76316881 0.031272441
-0.0097562717 0.054738741 -0.64792967 -0.41271579 0.47656241 0.78013378 0.028857458
-0.0095807612 0.053255048 -0.64731812 -0.37851176 0.43315822 0.81999737 0.02017137
-0.0097273849 0.052210383 -0.64695597 -0.36771435 0.41876137 0.83150256 0.01836968
-0.0098558469 0.051143307 -0.64662409 -0.35483548 0.40155882 0.84492242 0.015583338
-0.0099739162 0.050062563 -0.64630365 -0.34393927 0.3862322 0.85618025 0.013238691
-0.010082148 0.04896827 -0.64599329 -0.33310655 0.37109971 0.8669042 0.010440097
-0.0098829782 0.047471646 -0.64547312 -0.31931436 0.35169601 0.87998408 0.0070015932
-0.0099984901 0.04638283 -0.6451456 -0.3159129 0.3431679 0.88455546 0.0064224433
-0.010116437 0.045291789 -0.64481109 -0.31415761 0.33623976 0.88783574 0.0061881552
-0.0099388584 0.043834087 -0.64426404 -0.31197429 0.3302404 0.89085412 0.0051144906
-0.0097622611 0.042385299 -0.64372104 -0.31059977 0.32492268 0.89328414 0.0040538702
-0.0098788673 0.041295476 -0.64339024 -0.31219077 0.32255074 0.8935883 0.0040972661
-0.010003483 0.040209997 -0.64304644 -0.3147696 0.32181561 0.89295071 0.0046782107
-0.010127149 0.039122261 -0.64271212 -0.31721058 0.32203078 0.89201123 0.0050197523
-0.009659186 0.037359163 -0.64193255 -0.31911141 0.32438999 0.8904779 0.0052886638
-0.0094903996 0.035945609 -0.64135355 -0.32185614 0.32522723 0.8891862 0.0060529914
-0.0093157729 0.034531143 -0.64078271 -0.32399213 0.32676151 0.88784885 0.0066707605
-0.0094478587 0.033463869 -0.64041972 -0.32729757 0.32595804 0.88693631 0.0077642142
-0.0092684282 0.032048997 -0.63985372 -0.32846007 0.32998598 0.88501304 0.0079377228
-0.0094003147 0.030980403 -0.63950074 -0.3299897 0.33087415 0.88411099 0.0084937634
-0.0095436499 0.029923338 -0.63911998 -0.33370358 0.33135703 0.88254237 0.0096111177
-0.009694878 0.028868455 -0.63873148 -0.33808666 0.32972726 0.88149899 0.011278305
-0.0098505393 0.027810937 -0.63834912 -0.34325993 0.32955116 0.87958568 0.012811662
-0.0096815843 0.026428714 -0.6377359 -0.34541053 0.33109248 0.87817037 0.01368109
-0.0098506678 0.025379468 -0.6373297 -0.35047257 0.32801998 0.87733853 0.015720265
-0.0093373097 0.02367256 -0.6365034 -0.35083708 0.33344451 0.87512225 0.015563842
-0.0094862161 0.022615962 -0.63613939 -0.35557279 0.3344152 0.87284631 0.016846702
-0.0096274298 0.021550354 -0.63580453 -0.35824353 0.33623391 0.87104332 0.017377669
-0.0094351396 0.020164231 -0.63522124 -0.36106452 0.34059685 0.86816961 0.017859891
-0.0092429733 0.018776888 -0.63463205 -0.36290058 0.34533113 0.86551833 0.017855344
-0.0093831327 0.01771705 -0.63430345 -0.36546835 0.34809184 0.86332613 0.018183349
-0.0091945697 0.016334813 -0.63369775 -0.36739406 0.35320041 0.86043209 0.018217668
-0.0093472768 0.015291881 -0.63334584 -0.37014532 0.35527113 0.85839552 0.018876763
-0.0095071942 0.014256764 -0.63298309 -0.3724364 0.35756099 0.85644603 0.019139953
-0.009667227 0.013222991 -0.63262379 -0.37440264 0.36023262 0.85445958 0.019315414
-0.0094867256 0.011857885 -0.63199544 -0.37399077 0.36490753 0.85264254 0.018551622
-0.0093189962 0.010503442 -0.63134098 -0.37382579 0.36973709 0.85062683 0.018083606
-0.009495208 0.0094951745 -0.6309424 -0.37568179 0.37153098 0.84902531 0.018255491
-0.0090521844 0.0078776935 -0.62988496 -0.37521043 0.36671737 0.85131752 0.01888385
-0.009299024 0.0069513926 -0.6293211 -0.38153991 0.34684265 0.85683715 0.023476882
-0.0091784606 0.0056732749 -0.62857217 -0.38097897 0.33449039 0.86202526 0.0267777
-0.0093660913 0.0046621868 -0.62813777 -0.38187212 0.32395291 0.86569792 0.029546805
-0.0095577613 0.0036430331 -0.62768233 -0.38223714 0.30980805 0.87077713 0.033831473
-0.009079189 0.0020940017 -0.62678361 -0.37134629 0.29818812 0.87951207 0.037680071
-0.0092432192 0.0010573401 -0.62638229 -0.36950001 0.28372505 0.88509196 0.042750541
-0.0090983398 -0.00020566478 -0.62572086 -0.36610335 0.26427373 0.89244759 0.049190857
-0.0092494506 -0.0012618833 -0.62534231 -0.36075988 0.24323699 0.90056521 0.055455342
-0.009094893 -0.0025163279 -0.62473309 -0.35268947 0.22029318 0.90959764 0.06086386
-0.0092312694 -0.0035939934 -0.62436777 -0.34926051 0.1988977 0.91584128 0.065267861
-0.0093518905 -0.0046897917 -0.62403584 -0.34380719 0.17675193 0.92251587 0.069980271
-0.0088744154 -0.0060850168 -0.62332571 -0.33273777 0.14464378 0.93244326 0.074597485
-0.0089764316 -0.0071839383 -0.62304419 -0.3269718 0.11672377 0.93900746 0.079835296
-0.0084772101 -0.0085404115 -0.62246275 -0.31357917 0.078654058 0.94919795 0.083285138
-0.0085607246 -0.0096376287 -0.62225217 -0.3038708 0.043626949 0.95664752 0.088717639
-0.008635371 -0.010740055 -0.6220513 -0.29626983 0.0041139941 0.96301615 0.093664147
-0.0084177572 -0.011932718 -0.62173307 -0.28310204 -0.044325434 0.97107929 0.098403543
-0.0081872419 -0.013091029 -0.62146825 -0.27142116 -0.1037176 0.97755295 0.10384946
-0.0082567595 -0.014164917 -0.62136447 -0.26255864 -0.16773701 0.98064548 0.10815296
-0.0080540134 -0.015242132 -0.62117046 -0.25231698 -0.24618585 0.98058933 0.11255036
-0.0080466596 -0.016310174 -0.62124813 -0.24845228 -0.32857835 0.977512 0.11887521
-0.0080705388 -0.017345237 -0.62135559 -0.24245247 -0.42294249 0.96881348 0.12420174
-0.0077904626 -0.018300343 -0.62142426 -0.24305707 -0.53285164 0.95218402 0.12963836
-0.007749741 -0.019257255 -0.6217674 -0.24139559 -0.65419698 0.92871058 0.13652684
-0.0077207061 -0.020144954 -0.6222136 -0.2378055 -0.79457814 0.89289701 0.1405033
-0.007531656 -0.020774122 -0.62238199 -0.24610245 -0.93774778 0.83559573 0.14065912
-0.0075575323 -0.02144165 -0.62287104 -0.24745671 -1.0760401 0.76742452 0.14373881
-0.0075920834 -0.022130182 -0.62373883 -0.27319545 -1.2411158 0.65814054 0.14973401
-0.0074599041 -0.022432281 -0.62379849 -0.28524998 -1.3017789 0.57998878 0.15181543
-0.00735982 -0.02277758 -0.62402523 -0.29806027 -1.3484954 0.47967359 0.15482864
-0.0072586685 -0.02312593 -0.62428445 -0.30393428 -1.3758777 0.393592 0.15634766
-0.0066619404 0.067465812 -0.65407211 0.55284417 -0.66775268 -0.50574422 0.059025247
-0.0070145978 0.066672876 -0.65376198 0.55146265 -0.66169286 -0.51688868 0.058984589
-0.0073860185 0.065881729 -0.65339148 -0.54629433 0.6537118 0.53218168 0.058507692
-0.0074137994 0.064600348 -0.65251374 -0.53400713 0.63555014 0.56838042 0.055459429
-0.0077399164 0.063768469 -0.65211314 -0.52873778 0.62441999 0.58468783 0.054690704
-0.0080408864 0.062902637 -0.6517337 -0.52241862 0.6156193 0.6004166 0.053348877
-0.0080205351 0.061576452 -0.65082502 -0.50275904 0.59101474 0.64066875 0.04904709
-0.0082921591 0.06067859 -0.65040326 -0.49385571 0.5793767 0.65706623 0.047866963
-0.008542778 0.059756927 -0.64998728 -0.4846037 0.56586725 0.67584813 0.045362599
-0.0081439968 0.057920218 -0.64874673 -0.44318593 0.51611561 0.7394554 0.035153676
-0.0083513074 0.056948077 -0.64833492 -0.42874765 0.49816772 0.75853598 0.032327168
-0.0081962887 0.055483323 -0.64770681 -0.39730069 0.45812681 0.79852933 0.024455611
-0.0083560925 0.054455414 -0.64733607 -0.38563493 0.44413668 0.81093419 0.022975003
-0.008498569 0.053406768 -0.64699382 -0.37014392 0.42339 0.82820201 0.019383868
-0.0086363265 0.052351385 -0.64664352 -0.35882995 0.4090465 0.83973396 0.017213967
-0.0087511158 0.051267643 -0.64633149 -0.34587091 0.39136329 0.8531208 0.014131511
-0.0085469261 0.0497582 -0.64582378 -0.32616103 0.36512995 0.87201774 0.0094117057
-0.0086660068 0.048679713 -0.64548999 -0.32081196 0.35727361 0.87719613 0.0080743339
-0.0087806005 0.047594883 -0.64515889 -0.31547543 0.3493728 0.88228309 0.0066035255
-0.008893691 0.046504635 -0.64482743 -0.31173068 0.34197131 0.88650054 0.0055352622
-0.0087148389 0.045035236 -0.64429295 -0.30781105 0.33280334 0.8913483 0.0042354581
-0.0088420436 0.043956712 -0.64393222 -0.30903319 0.32996914 0.8919785 0.0047835805
-0.0086703878 0.042509709 -0.64338297 -0.30814472 0.32660842 0.8935191 0.0037419088
-0.0087872427 0.041420005 -0.64305198 -0.30975193 0.32468501 0.89366466 0.0038413585
-0.0089134257 0.040335529 -0.64270616 -0.3125248 0.3238892 0.89299017 0.0044226674
-0.0084542362 0.038563605 -0.64193308 -0.31426188 0.32677722 0.89132661 0.0043136626
-0.0082852421 0.037141643 -0.64136785 -0.31671321 0.32787353 0.89005667 0.0045470842
-0.0084127337 0.036069494 -0.64101249 -0.31925848 0.32762375 0.88924128 0.0053189569
-0.0082438868 0.034656707 -0.64043629 -0.3219659 0.32862201 0.88790029 0.0062110806
-0.0083765406 0.033589363 -0.64007425 -0.32505971 0.32824281 0.88691843 0.0071837269
-0.0082025724 0.032178819 -0.63950121 -0.32708716 0.33142731 0.88498855 0.0076519665
-0.0083356081 0.031111863 -0.63914645 -0.32884991 0.33278158 0.88382542 0.0081822798
-0.008471393 0.030047385 -0.6387887 -0.33032575 0.33389831 0.88285327 0.008716492
-0.0083101885 0.028657679 -0.63817573 -0.33287141 0.33573627 0.88120651 0.009852048
-0.0084612742 0.027607944 -0.6377874 -0.33658478 0.33576089 0.87979966 0.010920592
-0.0086218547 0.026560184 -0.63738847 -0.34106952 0.33428627 0.87865126 0.012214581
-0.0087976921 0.025514852 -0.63697129 -0.34697598 0.33154923 0.87740725 0.014497963
-0.0082976995 0.023811843 -0.6361317 -0.34760633 0.33653626 0.87524033 0.014650895
-0.0081172781 0.022426633 -0.63553572 -0.35025638 0.33992961 0.87285638 0.015220926
-0.0082608182 0.021369729 -0.63518518 -0.35411927 0.34181526 0.87056321 0.016061937
-0.0084066521 0.020313919 -0.6348393 -0.35707459 0.34339845 0.8687309 0.01666644
-0.0078899171 0.018598033 -0.63399142 -0.35822898 0.35000423 0.86559981 0.016351651
-0.0080353832 0.017549105 -0.63364214 -0.36135864 0.35175219 0.8635928 0.017020971
-0.0081807533 0.016498948 -0.63330245 -0.36358336 0.35460886 0.86148858 0.017490756
-0.0083251409 0.015449437 -0.63297027 -0.36440432 0.3569791 0.86014622 0.017378576
-0.0081528714 0.01408466 -0.63233608 -0.36564502 0.36072317 0.85804164 0.017232362
-0.0083107352 0.013052903 -0.63197345 -0.36733004 0.36368451 0.85606611 0.017441364
-0.0081352536 0.011686221 -0.6313473 -0.36588174 0.36800379 0.8548283 0.016804365
-0.007668965 0.010015779 -0.63037157 -0.36396003 0.37329617 0.85334432 0.01596839
-0.0078435652 0.0090137422 -0.62996686 -0.3651005 0.37418392 0.85246223 0.016252309
-0.0077447835 0.0077462974 -0.62917972 -0.36531088 0.36534181 0.8561998 0.018040996
-0.0079837162 0.00682658 -0.6286183 -0.37107924 0.34532714 0.86204106 0.023307655
-0.0081835398 0.0058345706 -0.62814999 -0.37246469 0.33366564 0.86607373 0.026532959
-0.0083759576 0.0048230616 -0.62768728 -0.37219304 0.32240823 0.87051427 0.030340534
-0.0082329009 0.0035281642 -0.62700135 -0.36759022 0.30850679 0.87752992 0.034532219
-0.0080909114 0.0022440075 -0.62632978 -0.36217552 0.29601935 0.88406974 0.038975056
-0.0082567642 0.0012021374 -0.62590539 -0.35956982 0.27901858 0.890683 0.045572996
-0.0080933347 -8.3946506e-005 -0.62530559 -0.3507967 0.25997901 0.89982563 0.05054817
-0.0079505239 -0.001341122 -0.62467617 -0.34277287 0.23871064 0.90873551 0.056370839
-0.0081024971 -0.0024007601 -0.62425846 -0.33988154 0.21558568 0.91554779 0.06262517
-0.0079356944 -0.0036572381 -0.62371445 -0.32903507 0.19063787 0.92495638 0.067193858
-0.0080408035 -0.0047575617 -0.62341195 -0.32361296 0.16751692 0.93147159 0.071383193
-0.0078653088 -0.0060009053 -0.62290853 -0.31426767 0.13915884 0.93965691 0.076131605
-0.0073822816 -0.0073745269 -0.62232322 -0.30030587 0.10323734 0.95002824 0.079021804
-0.0074701067 -0.00846997 -0.62209195 -0.28978968 0.071208827 0.95772463 0.08400654
-0.0072773402 -0.0096755903 -0.62171078 -0.27621195 0.031091508 0.96660852 0.088927597
-0.007347744 -0.010772241 -0.62151653 -0.26731986 -0.0097302897 0.97309041 0.09390486
-0.0071327379 -0.011956565 -0.62122422 -0.25373936 -0.059688091 0.98086125 0.098824702
-0.0072170449 -0.013030034 -0.62106878 -0.23987485 -0.11639415 0.98618174 0.10398015
-0.0070427349 -0.014136564 -0.62083334 -0.22633262 -0.18452953 0.98883551 0.10672237
-0.0070505086 -0.015209544 -0.62084663 -0.21689719 -0.25777721 0.98916894 0.11283092
-0.00686487 -0.016240945 -0.6207419 -0.20360635 -0.33919787 0.98481041 0.11816514
-0.0068368968 -0.017279934 -0.62090993 -0.1984458 -0.43340552 0.97671819 0.12454969
-0.0068437378 -0.018269572 -0.6211049 -0.19194531 -0.5406785 0.96013713 0.12973233
-0.0066618831 -0.019149922 -0.62129593 -0.17883424 -0.6472823 0.93979067 0.13178535
-0.0066280602 -0.020012181 -0.6216566 -0.17961344 -0.78631878 0.90146387 0.13455881
-0.0066544018 -0.020778803 -0.62204814 -0.18141818 -0.92957783 0.84578216 0.13940315
-0.0067359484 -0.021578006 -0.62277448 -0.19561423 -1.1041437 0.75557852 0.14700876
-0.0067829853 -0.022148257 -0.62323558 -0.20253883 -1.2175374 0.66442871 0.1503567
-0.0067200926 -0.022694318 -0.62396979 -0.21515062 -1.3340141 0.57721102 0.15477419
-0.0065915845 -0.022880329 -0.62369633 -0.23107176 -1.3308399 0.49933305 0.15274107
-0.0064755576 -0.023234932 -0.62395293 -0.24543242 -1.3563321 0.41251585 0.15577343
-0.0053692474 0.06860923 -0.65411013 0.55217326 -0.66874099 -0.50414294 0.059782084
-0.0057397727 0.067822315 -0.65379119 0.54869336 -0.66308719 -0.51635748 0.05915603
-0.0060948664 0.067018151 -0.65345675 0.5447039 -0.6565491 -0.52970779 0.058746956
-0.006135304 0.065763883 -0.65256667 -0.53464228 0.63781011 0.56501496 0.056199171
-0.0064670779 0.064930953 -0.65217578 -0.52789283 0.62834322 0.58146238 0.055139083
-0.0067865364 0.064084135 -0.65175891 -0.520136 0.61741734 0.59821743 0.054465245
-0.006762105 0.06275294 -0.65088284 -0.50447917 0.59333873 0.63768607 0.049240302
-0.0070382762 0.061858777 -0.65045702 -0.4949154 0.58149427 0.65459597 0.047897685
-0.0073034083 0.060952626 -0.65002143 -0.4844178 0.56973916 0.67080712 0.047173053
-0.0069038467 0.059108049 -0.64878827 -0.44625771 0.5197686 0.73526895 0.03577758
-0.0071150004 0.058139 -0.64837325 -0.43261614 0.50372565 0.75277662 0.033563051
-0.0069700545 0.056680709 -0.64771682 -0.4027001 0.46699023 0.79058331 0.026533976
-0.007130038 0.055655029 -0.64735997 -0.38916489 0.44858557 0.80679965 0.024026643
-0.0072770426 0.054611545 -0.64701295 -0.37607321 0.43299419 0.82064414 0.021809012
-0.0074078226 0.053548522 -0.64668399 -0.36186293 0.41438228 0.83590639 0.018470859
-0.0075355563 0.05248132 -0.64634717 -0.35074157 0.40038091 0.84700871 0.016209148
-0.007326372 0.050960604 -0.64584863 -0.32801926 0.37040132 0.86911637 0.010451817
-0.0074435011 0.049880955 -0.6455211 -0.32171667 0.36108971 0.87530792 0.0089226356
-0.0072592548 0.048398346 -0.64500165 -0.30973244 0.34490067 0.88606578 0.0054509691
-0.0073808497 0.047324263 -0.64464998 -0.30772758 0.34138662 0.88812304 0.0047745802
-0.0074943234 0.046239812 -0.64431685 -0.30555004 0.33729419 0.89043701 0.0037582575
-0.0076140007 0.045159332 -0.64396644 -0.30500793 0.33422929 0.89177728 0.0034742516
-0.0074565047 0.043719001 -0.64339155 -0.30441168 0.33185294 0.89286667 0.003270414
-0.0075729005 0.042628761 -0.64305824 -0.30607 0.32707983 0.89405996 0.0035273531
-0.0071283528 0.040843748 -0.64228219 -0.30743027 0.32875177 0.8929792 0.0032328572
-0.0072478782 0.039766382 -0.64193767 -0.30963111 0.32868904 0.89224225 0.0037228481
-0.0070828488 0.038340658 -0.64137459 -0.31177533 0.32986826 0.89105994 0.0038522696
-0.0069167768 0.036918547 -0.64080632 -0.31373376 0.33155099 0.88974857 0.003984462
-0.0070395181 0.035848193 -0.64045638 -0.31626946 0.33143121 0.8888973 0.0045620799
-0.0068732821 0.034435585 -0.6398744 -0.3192229 0.33284795 0.88731539 0.0053420425
-0.0070006787 0.033369664 -0.63952011 -0.32159358 0.33284467 0.88646364 0.0060610776
-0.0071332143 0.032306165 -0.63915825 -0.32473874 0.33318472 0.88519406 0.0070988601
-0.0072696288 0.031243443 -0.63879532 -0.32741341 0.33363289 0.88404483 0.00797805
-0.0071029211 0.029843107 -0.63820595 -0.32821399 0.33659342 0.88262612 0.008343365
-0.007241514 0.028784635 -0.63784188 -0.32998639 0.33849686 0.88123548 0.0089438399
-0.0073922509 0.027734939 -0.63745528 -0.33336034 0.33800161 0.88016582 0.01022334
-0.0075529534 0.026689252 -0.63705677 -0.33733678 0.33793476 0.8786906 0.011252017
-0.0070832106 0.024982041 -0.63618881 -0.33980712 0.34143016 0.87638968 0.012118745
-0.0072484561 0.023946224 -0.63577867 -0.3446359 0.3391504 0.87541288 0.013748611
-0.007076961 0.022566894 -0.63517082 -0.34788018 0.34228638 0.87290281 0.014694371
-0.0072181816 0.021508908 -0.63482922 -0.35012627 0.34458238 0.87109333 0.015108363
-0.0073722117 0.020461822 -0.63446635 -0.35382012 0.34611192 0.86900204 0.015774313
-0.006864591 0.018749816 -0.63361484 -0.3547124 0.3518962 0.86629772 0.015685651
-0.007014107 0.017706001 -0.63325828 -0.35777241 0.35342672 0.86442113 0.016243447
-0.0071586934 0.016657205 -0.63292116 -0.35955191 0.35600656 0.86260813 0.016492136
-0.0073063257 0.015613332 -0.63257939 -0.36077404 0.35883975 0.86091477 0.016542824
-0.0071272729 0.014240526 -0.63196808 -0.36037555 0.36248076 0.85954207 0.016184496
-0.0069590574 0.012877377 -0.63133323 -0.36020291 0.36702606 0.85767436 0.016008105
-0.0064860629 0.011192128 -0.63039565 -0.3581143 0.37184867 0.85645509 0.014945044
-0.006654561 0.010181318 -0.63000292 -0.35821861 0.37328666 0.85577714 0.014957856
-0.0068348604 0.0091864876 -0.62958056 -0.35836291 0.37368983 0.8555339 0.015383075
-0.0067394879 0.0079147853 -0.62878627 -0.3590208 0.36609957 0.85853827 0.01758597
-0.0069879992 0.0069942335 -0.62819302 -0.36399439 0.34436515 0.86546773 0.023236234
-0.0071854871 0.0059944056 -0.6277141 -0.36328858 0.33175296 0.87073737 0.026739342
-0.0073733386 0.0049725482 -0.62724209 -0.36286315 0.31896448 0.87575841 0.031129729
-0.0075438372 0.0039253812 -0.62679225 -0.36065817 0.30577916 0.88142681 0.035503421
-0.0070975497 0.0023902012 -0.62586379 -0.35122886 0.29149386 0.89003885 0.041214317
-0.0069389017 0.0010977782 -0.62526131 -0.34265029 0.27398258 0.89883894 0.045945112
-0.0070827035 3.5154866e-005 -0.62486607 -0.33810472 0.25434011 0.90629995 0.053421661
-0.0069430955 -0.0012273532 -0.6242317 -0.32984254 0.23485652 0.91448349 0.057727702
-0.007076812 -0.0023057903 -0.62384278 -0.32383546 0.21127847 0.9222852 0.063230909
-0.0071871569 -0.0034082723 -0.62351036 -0.31732967 0.18918867 0.92930371 0.067955323
-0.0067393291 -0.004822792 -0.62280411 -0.30473539 0.15887871 0.9393577 0.072431885
-0.0068367501 -0.0059256395 -0.62251526 -0.29512379 0.13085993 0.94717944 0.077897221
-0.0063696047 -0.0072993981 -0.62194735 -0.27924278 0.094049655 0.95781332 0.080172658
-0.006460771 -0.0083942395 -0.62169647 -0.26681688 0.060042243 0.96571797 0.086171471
-0.0062679569 -0.0096063316 -0.62134105 -0.2510621 0.019078298 0.9748171 0.090189286
-0.006340446 -0.010705946 -0.62114012 -0.23939715 -0.023671903 0.98151159 0.096249148
-0.0061469623 -0.011877326 -0.62085515 -0.22105747 -0.078469448 0.98929358 0.10113537
-0.0059952457 -0.012992337 -0.62054849 -0.204953 -0.14064065 0.99325925 0.10393576
-0.0060291821 -0.014078022 -0.62052619 -0.1913171 -0.20499822 0.99583226 0.10937528
-0.0058592441 -0.015152069 -0.62038589 -0.17539699 -0.27570188 0.99517345 0.11332862
-0.0058746091 -0.01619132 -0.62046498 -0.1607254 -0.35808885 0.99069118 0.11971989
-0.005861978 -0.017232459 -0.62061888 -0.15096879 -0.44884452 0.98193741 0.12538311
-0.0059127035 -0.018216381 -0.62080568 -0.13496183 -0.5539788 0.96376753 0.13035285
-0.0057039885 -0.019080663 -0.62100416 -0.12500206 -0.66514915 0.9399038 0.13226083
-0.0057897009 -0.019910323 -0.62126201 -0.11693648 -0.79773349 0.89516008 0.13571838
-0.0058131567 -0.020722369 -0.62168247 -0.11586403 -0.92769021 0.84388644 0.14005092
-0.0058984081 -0.021595005 -0.62243038 -0.12840375 -1.089311 0.76241422 0.14685562
-0.0059013073 -0.022193648 -0.62293208 -0.14095198 -1.204699 0.67303193 0.15082522
-0.0057982947 -0.022749444 -0.62365162 -0.15288341 -1.3149003 0.58755755 0.15209714
-0.0057505984 -0.023129666 -0.62392998 -0.17515846 -1.3622317 0.48209539 0.15514766
-0.0057200403 -0.023499066 -0.62425137 -0.1901595 -1.3833828 0.39565665 0.15511009
-0.0040622624 0.069740824 -0.65416777 0.55424416 -0.66861612 -0.50153822 0.060436927
-0.0044487794 0.068961859 -0.65384084 0.55009639 -0.6643309 -0.51272744 0.060433798
-0.0048192497 0.068180338 -0.65347755 0.54261017 -0.65633452 -0.52994514 0.05940732
-0.0048647122 0.066922002 -0.65259868 -0.53361714 0.63908201 0.56285447 0.056856677
-0.0051873336 0.06608554 -0.65224242 -0.52828538 0.63138413 0.57778686 0.055665743
-0.005518314 0.065251775 -0.65182036 -0.52059817 0.6202715 0.59521258 0.054746173
-0.0055018966 0.063923351 -0.65092731 -0.50479496 0.59705323 0.63292927 0.050571505
-0.0057857074 0.063040331 -0.65050465 -0.49644774 0.58456409 0.6505841 0.048634414
-0.0060477699 0.062129181 -0.65008229 -0.48648563 0.57224441 0.66779411 0.047216497
-0.0062986366 0.061206225 -0.64964932 -0.47652003 0.5599919 0.68420118 0.045877419
-0.0058786185 0.059331328 -0.64840841 -0.43568572 0.50781232 0.74809772 0.034783944
-0.0057399441 0.05787579 -0.64773923 -0.40679619 0.47268975 0.78505307 0.027868561
-0.0059067216 0.056856461 -0.64737648 -0.3923898 0.45507607 0.80156463 0.025215941
-0.0060491357 0.055808801 -0.64704698 -0.37839884 0.43688339 0.8175745 0.022333696
-0.0061819265 0.054748718 -0.64671749 -0.36488155 0.42029458 0.8317405 0.01971969
-0.0059847357 0.053236008 -0.64619887 -0.33892775 0.38619816 0.85816115 0.013222723
-0.0061097327 0.052167352 -0.64586341 -0.33179367 0.37721297 0.86477655 0.011940544
-0.0062198159 0.051080287 -0.64555508 -0.32247171 0.36429903 0.87370723 0.0094840992
-0.0063403267 0.050003935 -0.64521366 -0.31792626 0.35751352 0.87813693 0.0083754761
-0.0061601396 0.048522905 -0.64468193 -0.30792984 0.34422532 0.88695544 0.005366521
-0.0062766406 0.04744279 -0.64433944 -0.30516279 0.33973017 0.88964206 0.0043064216
-0.0063935253 0.046363201 -0.64399302 -0.30371141 0.33744517 0.89100832 0.0036702899
-0.0062365602 0.044917673 -0.64342058 -0.3017934 0.33401018 0.89295113 0.0028531058
-0.0063526961 0.043836333 -0.64307874 -0.30204904 0.33240744 0.89346266 0.0026924571
-0.0059171077 0.042037513 -0.64230853 -0.30226246 0.33090904 0.89394522 0.0021179405
-0.0060376571 0.040965058 -0.64195347 -0.30453652 0.33086476 0.89318967 0.0026466635
-0.0061594653 0.039890651 -0.64160293 -0.30741769 0.33069465 0.89226645 0.0034531623
-0.0057167425 0.038112495 -0.64081889 -0.30914599 0.33330634 0.89069623 0.0033545876
-0.0058371732 0.037041768 -0.64047086 -0.3109124 0.33381486 0.88989121 0.0035767937
-0.0056718043 0.035621129 -0.63990235 -0.31352413 0.33517522 0.88846499 0.0039905752
-0.0057975855 0.034558177 -0.63954276 -0.31624579 0.33495697 0.88758618 0.0047804923
-0.0059251194 0.033493645 -0.63918734 -0.31896725 0.33466679 0.88672674 0.0056361621
-0.0057590008 0.032083053 -0.6386103 -0.32068431 0.33707392 0.88519859 0.0061087403
-0.0058940682 0.031026008 -0.63824177 -0.3231498 0.33741537 0.88417584 0.0068383124
-0.0060333647 0.029970661 -0.63786954 -0.32571313 0.33792758 0.8830452 0.0078521464
-0.0055778082 0.028235814 -0.63702738 -0.32592297 0.34306461 0.88097811 0.0077307159
-0.0057158186 0.027184308 -0.63665771 -0.32736081 0.34483165 0.87975419 0.0083257295
-0.005859484 0.026140254 -0.63627529 -0.33050287 0.34562489 0.87827575 0.0094105145
-0.0060104253 0.025100235 -0.63588458 -0.33361185 0.34640631 0.87679601 0.010230443
-0.0058622421 0.023731396 -0.63523632 -0.33798778 0.34687597 0.87494707 0.011821853
-0.0060265362 0.022700537 -0.63482761 -0.34435177 0.34523085 0.87315446 0.01390551
-0.0061794929 0.021654032 -0.63446087 -0.34758702 0.34656411 0.87135518 0.01466668
-0.0060031279 0.020273272 -0.633865 -0.34959954 0.35154471 0.86853886 0.014747542
-0.0058248355 0.018889593 -0.63326913 -0.34953016 0.35435846 0.86741436 0.014525762
-0.0059764157 0.017849877 -0.63290751 -0.35272142 0.35536963 0.86570805 0.015136155
-0.0061274888 0.016809382 -0.63255334 -0.35509276 0.35711467 0.86401272 0.015476297
-0.0059486167 0.01543302 -0.63195145 -0.3553443 0.36140412 0.86210787 0.01528387
-0.0061046388 0.014401986 -0.63158673 -0.35699317 0.36381021 0.86040646 0.015543636
-0.0053045745 0.012371083 -0.63041508 -0.35269082 0.370123 0.85946929 0.01420946
-0.0054695979 0.011355638 -0.63002443 -0.35316938 0.37205684 0.85842401 0.014288125
-0.0056428588 0.010353428 -0.62961304 -0.35367042 0.37333807 0.85765219 0.014649626
-0.0055160336 0.0090320744 -0.62890887 -0.35053092 0.37362751 0.85880619 0.014784307
-0.0057250857 0.008078346 -0.62840545 -0.3513397 0.36431134 0.86248159 0.017273968
-0.0059750266 0.0071472842 -0.62779021 -0.3544161 0.34190947 0.87045187 0.023138214
-0.0061702658 0.0061408272 -0.62729508 -0.3541612 0.32974905 0.87530941 0.026882397
-0.0063575162 0.00511075 -0.62680656 -0.35389909 0.31593025 0.88057733 0.03200604
-0.0065326667 0.004056111 -0.62632465 -0.35208771 0.30133227 0.88650525 0.038466249
-0.0060782749 0.0025139875 -0.62543452 -0.33921546 0.28533 0.8967104 0.043030739
-0.0059224698 0.0012196186 -0.62482738 -0.32880133 0.26840565 0.9057402 0.047829166
-0.0057760761 -5.7389203e-005 -0.62422621 -0.32104856 0.24757236 0.91429836 0.053933308
-0.0056410939 -0.0013130407 -0.62361473 -0.31100136 0.22614655 0.92317629 0.058832396
-0.0060373354 -0.002217327 -0.62343341 -0.30835432 0.20438091 0.92907405 0.064982198
-0.0056060818 -0.0036459914 -0.62271994 -0.29493818 0.17658663 0.93914813 0.068767443
-0.0057085901 -0.0047426606 -0.62240523 -0.28528753 0.14977379 0.94704264 0.074467495
-0.0052630468 -0.0061272685 -0.6218164 -0.26947621 0.11514944 0.95750654 0.076793723
-0.0053414446 -0.0072291712 -0.62158483 -0.25781259 0.082755126 0.96548802 0.081836224
-0.0051620724 -0.0084412843 -0.62119895 -0.24202929 0.043380041 0.9746176 0.086575516
-0.0052334345 -0.0095493067 -0.62098873 -0.229937 0.0055701332 0.9818545 0.091294967
-0.0053081578 -0.010651156 -0.62078273 -0.2144424 -0.03899901 0.98882419 0.097097568
-0.005124446 -0.011827873 -0.62051857 -0.19365022 -0.093848482 0.99624842 0.10045721
-0.0049801264 -0.012939496 -0.62025058 -0.17358893 -0.15883213 0.99938351 0.10366429
-0.0050136484 -0.014040218 -0.62023395 -0.15638696 -0.22080041 1.0021578 0.10856695
-0.0048390995 -0.015097215 -0.62012988 -0.13687886 -0.29651061 0.9999271 0.11409998
-0.0048622461 -0.01615468 -0.62021142 -0.12132831 -0.37675568 0.99491173 0.12047841
-0.0048991959 -0.017170452 -0.62033975 -0.10206563 -0.47077724 0.98261964 0.12453558
-0.0049035251 -0.018178213 -0.62059075 -0.086723477 -0.57378948 0.96483994 0.12941344
-0.0047548176 -0.019040491 -0.6207732 -0.07412938 -0.67652297 0.94004422 0.12969477
-0.0048557403 -0.020067906 -0.62133813 -0.069345221 -0.81881911 0.89972204 0.13789906
-0.0049313721 -0.020912657 -0.62180102 -0.05981081 -0.94910192 0.8470546 0.14007169
-0.0049794246 -0.021616384 -0.62221819 -0.065244637 -1.0796387 0.76852876 0.1442519
-0.0049240598 -0.022244358 -0.62281418 -0.077625886 -1.1992673 0.68491876 0.1477672
-0.0049134609 -0.022768157 -0.62331337 -0.094882049 -1.2883712 0.5915392 0.15118046
-0.0048979647 -0.023193823 -0.62366205 -0.11515787 -1.3390933 0.49451417 0.15300708
-0.0048930352 -0.02355588 -0.62378144 -0.14265499 -1.3329481 0.40882128 0.15536571
-0.0034460283 0.070531905 -0.65446806 0.55379164 -0.67590928 -0.490392 0.061760679
-0.0035304849 0.069328547 -0.65352303 0.54302299 -0.65606982 -0.52879792 0.060107592
-0.003879043 0.068516977 -0.65318298 0.5395537 -0.65083539 -0.53976834 0.059960898
-0.0039100968 0.067236684 -0.65230852 -0.52945906 0.63487101 0.57308251 0.056108829
-0.0042391568 0.066404231 -0.65188611 -0.52180159 0.62327164 0.59052068 0.055729911
-0.0045460258 0.065546736 -0.65148586 -0.51608092 0.61401331 0.60571557 0.054714464
-0.0045260987 0.064210325 -0.65055734 -0.4964897 0.58889556 0.64557183 0.050146293
-0.004794809 0.063309453 -0.65013623 -0.48810145 0.57509172 0.66377586 0.048056435
-0.0050438852 0.062382579 -0.64971507 -0.47846594 0.56240785 0.68071336 0.046414979
-0.0046292562 0.060506035 -0.64847773 -0.43600401 0.51187176 0.7454772 0.034830254
-0.0048261383 0.059521783 -0.64807665 -0.42293873 0.49624479 0.76207018 0.032646064
-0.0046720095 0.058046211 -0.64742076 -0.39493078 0.45928332 0.79802495 0.025942201
-0.0048249625 0.057010267 -0.6470713 -0.38091409 0.44231004 0.81348991 0.023280833
-0.0049606944 0.055953529 -0.64674038 -0.36858532 0.42478544 0.82783282 0.020541433
-0.0050894408 0.054887615 -0.64640892 -0.35738629 0.4103044 0.83957529 0.018595885
-0.004882751 0.053361915 -0.64590454 -0.33261445 0.37910911 0.86364871 0.012341421
-0.0050028469 0.052287303 -0.6455732 -0.32500032 0.36948925 0.87059671 0.010687563
-0.0051212786 0.051209502 -0.64523894 -0.31953532 0.36197814 0.8757239 0.0092781009
-0.0049309814 0.04971176 -0.64473623 -0.30662203 0.34478003 0.88719285 0.0053792191
-0.0050549777 0.048641413 -0.64437497 -0.3052859 0.34266549 0.88847291 0.0049079298
-0.0051708091 0.047559857 -0.64402986 -0.30308154 0.33842239 0.89085126 0.003911213
-0.0050130016 0.046109628 -0.64346421 -0.30017895 0.33460984 0.89327091 0.0028343978
-0.0051317108 0.045033358 -0.64311105 -0.30013314 0.33365637 0.89364249 0.002552131
-0.0052465852 0.043952662 -0.64276773 -0.29991511 0.3327806 0.89404196 0.0021013429
-0.0048198844 0.042154871 -0.64199257 -0.29987472 0.33274272 0.89406866 0.0014538812
-0.0049417992 0.041084897 -0.64163315 -0.30196267 0.33291325 0.89330202 0.0020819178
-0.0047876495 0.039657034 -0.64106512 -0.30362058 0.3343578 0.89219987 0.0023511448
-0.0046322541 0.038231485 -0.64049572 -0.30477011 0.33616719 0.89112759 0.002316829
