ply
format ascii 1.0
element vertex 1043
property float x
property float y
property float z
property float nx
property float ny
property float nz
property uchar red
property uchar green
property uchar blue
end_header
-0.0569276 0.0120996 -0.750357 0 0 0 74 45 31
-0.0568836 0.0122588 -0.748765 0 0 0 71 43 31
-0.0568787 0.0129985 -0.747358 0 0 0 70 43 32
-0.0567957 0.0125741 -0.745586 0 0 0 68 41 34
-0.0567127 0.0121477 -0.743818 0 0 0 69 39 37
-0.0567078 0.0128852 -0.742415 0 0 0 70 39 37
-0.0566898 0.0134281 -0.740952 0 0 0 70 37 28
-0.0566459 0.0135813 -0.73937 0 0 0 70 37 22
-0.0565239 0.0125641 -0.737436 0 0 0 71 39 18
-0.0564669 0.0125192 -0.735802 0 0 0 69 38 17
-0.056436 0.0128633 -0.734288 0 0 0 65 36 18
-0.056288 0.0114479 -0.732251 0 0 0 67 40 21
-0.0562831 0.0121802 -0.730858 0 0 0 66 41 19
-0.0561742 0.0113466 -0.729005 0 0 0 69 45 21
-0.0561564 0.0118815 -0.727557 0 0 0 72 46 21
-0.0561385 0.0124162 -0.72611 0 0 0 66 40 15
-0.0561076 0.0127542 -0.724607 0 0 0 62 33 17
-0.0560508 0.0126986 -0.722993 0 0 0 64 36 22
-0.0560069 0.0128382 -0.721438 0 0 0 63 36 17
-0.0559891 0.0133702 -0.719996 0 0 0 63 38 18
-0.0558672 0.0123264 -0.718113 0 0 0 64 39 19
-0.0558624 0.0130537 -0.716729 0 0 0 63 37 20
-0.0558576 0.0137809 -0.715346 0 0 0 61 35 20
-0.0558527 0.0145081 -0.713962 0 0 0 60 37 23
-0.0557569 0.0138515 -0.712202 0 0 0 59 35 25
-0.0556741 0.0133904 -0.710499 0 0 0 57 32 25
-0.0556303 0.0135213 -0.70896 0 0 0 58 33 28
-0.0555736 0.0134529 -0.707371 0 0 0 61 33 30
-0.0555688 0.0141767 -0.705994 0 0 0 60 31 33
-0.0555639 0.0149004 -0.704617 0 0 0 58 29 33
-0.0555332 0.0152267 -0.703137 0 0 0 57 26 31
-0.0555284 0.0159501 -0.70176 0 0 0 58 27 33
-0.0555236 0.0166735 -0.700384 0 0 0 60 29 37
-0.0555188 0.0173969 -0.699008 0 0 0 61 31 31
-0.055462 0.0173226 -0.69743 0 0 0 63 35 21
-0.0553404 0.0162491 -0.695603 0 0 0 61 37 13
-0.0553356 0.01697 -0.694231 0 0 0 60 38 14
-0.0553308 0.0176912 -0.692859 0 0 0 54 36 12
-0.055326 0.0184123 -0.691487 0 0 0 46 31 12
-0.0552823 0.0185325 -0.689969 0 0 0 40 26 13
-0.0552126 0.0182507 -0.688355 0 0 0 39 24 19
-0.0551948 0.0187698 -0.686938 0 0 0 36 21 18
-0.0551155 0.0183347 -0.685294 0 0 0 33 18 13
-0.0551107 0.0190532 -0.683927 0 0 0 30 15 8
-0.0551059 0.0197718 -0.68256 0 0 0 32 18 5
-0.054984 0.0186727 -0.680769 0 0 0 36 22 9
-0.0549375 0.0187403 -0.679255 0 0 0 34 22 10
-0.0548679 0.0184483 -0.677662 0 0 0 28 17 11
-0.054915 0.0199713 -0.676484 0 0 0 31 20 24
-0.0549102 0.0206875 -0.675121 0 0 0 40 31 36
-0.0549055 0.0214037 -0.673759 0 0 0 75 65 64
-0.0549007 0.0221199 -0.672396 0 0 0 58 47 45
-0.054896 0.0228362 -0.671033 0 0 0 17 5 7
-0.0548912 0.0235524 -0.669671 0 0 0 18 3 8
-0.0542319 0.0140216 -0.666092 0 0 0 26 11 18
-0.0557349 0.00669987 -0.771802 0 0 0 83 54 56
-0.05573 0.00744454 -0.770385 0 0 0 71 47 45
-0.055725 0.00818923 -0.768968 0 0 0 53 30 24
-0.0557201 0.00893391 -0.767552 0 0 0 48 24 20
-0.0557151 0.0096786 -0.766135 0 0 0 39 15 15
-0.0557102 0.0104233 -0.764718 0 0 0 37 13 11
-0.0557053 0.0111679 -0.763301 0 0 0 30 8 0
-0.0555611 0.0097977 -0.761179 0 0 0 35 13 0
-0.0554929 0.00957829 -0.759447 0 0 0 37 15 2
-0.0554247 0.00935708 -0.757718 0 0 0 44 19 14
-0.0554197 0.0100981 -0.756308 0 0 0 57 28 32
-0.0554148 0.0108391 -0.754899 0 0 0 68 39 43
-0.055372 0.0110007 -0.753301 0 0 0 74 45 39
-0.0553417 0.0113546 -0.751768 0 0 0 75 45 35
-0.0553368 0.0120947 -0.75036 0 0 0 73 43 32
-0.055294 0.0122539 -0.748768 0 0 0 71 43 32
-0.0552891 0.0129936 -0.747361 0 0 0 73 45 41
-0.0552083 0.0125692 -0.745589 0 0 0 67 41 40
-0.0551275 0.0121428 -0.743821 0 0 0 68 39 43
-0.0551226 0.0128803 -0.742418 0 0 0 69 39 39
-0.0551051 0.0134232 -0.740955 0 0 0 68 38 28
-0.0550622 0.0135764 -0.739373 0 0 0 68 39 21
-0.0549436 0.0125592 -0.737439 0 0 0 70 42 20
-0.0548882 0.0125144 -0.735805 0 0 0 70 42 20
-0.054858 0.0128585 -0.73429 0 0 0 69 41 27
-0.0547141 0.0114431 -0.732254 0 0 0 69 42 31
-0.0547093 0.0121753 -0.730861 0 0 0 65 42 28
-0.0546033 0.0113417 -0.729008 0 0 0 63 40 22
-0.0545858 0.0118767 -0.72756 0 0 0 65 43 20
-0.0545684 0.0124113 -0.726113 0 0 0 62 40 17
-0.0545382 0.0127493 -0.72461 0 0 0 62 36 19
-0.0544829 0.0126937 -0.722996 0 0 0 65 39 24
-0.0544402 0.0128333 -0.721441 0 0 0 62 36 21
-0.0544227 0.0133654 -0.719999 0 0 0 63 37 22
-0.0543042 0.0123216 -0.718116 0 0 0 64 38 25
-0.0542994 0.0130488 -0.716732 0 0 0 63 37 24
-0.0542946 0.0137761 -0.715348 0 0 0 58 34 22
-0.0542897 0.0145033 -0.713965 0 0 0 60 36 26
-0.0541965 0.0138467 -0.712204 0 0 0 60 35 28
-0.054116 0.0133856 -0.710502 0 0 0 57 32 27
-0.0540733 0.0135164 -0.708963 0 0 0 57 32 27
-0.0540181 0.0134481 -0.707374 0 0 0 62 37 33
-0.0540132 0.0141719 -0.705997 0 0 0 63 38 34
-0.0540084 0.0148956 -0.70462 0 0 0 60 32 31
-0.0539784 0.0152219 -0.703139 0 0 0 55 27 26
-0.0539736 0.0159453 -0.701763 0 0 0 55 27 26
-0.0539688 0.0166687 -0.700387 0 0 0 58 30 29
-0.053964 0.0173921 -0.699011 0 0 0 61 33 29
-0.0539088 0.0173178 -0.697432 0 0 0 61 35 22
-0.0537905 0.0162443 -0.695606 0 0 0 56 34 13
-0.0537857 0.0169652 -0.694234 0 0 0 51 33 9
-0.0537809 0.0176864 -0.692862 0 0 0 48 32 9
-0.0537761 0.0184075 -0.69149 0 0 0 41 28 11
-0.0537335 0.0185277 -0.689972 0 0 0 37 23 14
-0.0536657 0.0182459 -0.688358 0 0 0 35 19 19
-0.0536483 0.018765 -0.686941 0 0 0 33 17 18
-0.0535711 0.0183299 -0.685296 0 0 0 27 11 11
-0.0535663 0.0190484 -0.683929 0 0 0 26 11 4
-0.0535616 0.019767 -0.682562 0 0 0 30 16 3
-0.0534431 0.0186679 -0.680772 0 0 0 37 26 8
-0.0533977 0.0187355 -0.679258 0 0 0 38 29 12
-0.05333 0.0184436 -0.677664 0 0 0 38 28 18
-0.0533756 0.0199665 -0.676487 0 0 0 42 32 30
-0.0533709 0.0206827 -0.675124 0 0 0 50 40 41
-0.0533661 0.021399 -0.673761 0 0 0 43 32 30
-0.0533614 0.0221152 -0.672399 0 0 0 37 23 22
-0.0533566 0.0228314 -0.671036 0 0 0 20 6 6
-0.0533518 0.0235476 -0.669674 0 0 0 24 8 11
-0.0527115 0.0140169 -0.666095 0 0 0 26 9 17
-0.0540607 0.00554873 -0.771406 0 0 0 68 42 45
-0.0540557 0.00629237 -0.769991 0 0 0 63 41 43
-0.0540508 0.00703599 -0.768577 0 0 0 52 31 28
-0.0540458 0.00777964 -0.767162 0 0 0 53 32 27
-0.0540409 0.00852326 -0.765747 0 0 0 46 25 20
-0.054036 0.0092669 -0.764332 0 0 0 43 23 14
-0.054031 0.0100105 -0.762918 0 0 0 37 19 0
-0.0539647 0.00979276 -0.761182 0 0 0 48 28 4
-0.0538983 0.00957336 -0.75945 0 0 0 52 31 12
-0.053832 0.00935216 -0.757721 0 0 0 56 32 22
-0.0538271 0.0100932 -0.756311 0 0 0 67 38 43
-0.0538222 0.0108342 -0.754902 0 0 0 76 46 56
-0.0537804 0.0109958 -0.753304 0 0 0 76 45 50
-0.053751 0.0113496 -0.751771 0 0 0 72 42 40
-0.053746 0.0120898 -0.750363 0 0 0 72 41 36
-0.0537043 0.012249 -0.748771 0 0 0 73 43 41
-0.0536994 0.0129886 -0.747364 0 0 0 72 45 50
-0.0536209 0.0125643 -0.745592 0 0 0 69 42 51
-0.0535424 0.0121379 -0.743824 0 0 0 71 41 51
-0.0535375 0.0128754 -0.74242 0 0 0 73 42 47
-0.0535203 0.0134183 -0.740957 0 0 0 71 42 34
-0.0534786 0.0135715 -0.739376 0 0 0 71 42 26
-0.0533633 0.0125543 -0.737442 0 0 0 73 45 24
-0.0533094 0.0125095 -0.735808 0 0 0 72 45 26
-0.05328 0.0128536 -0.734293 0 0 0 69 44 37
-0.0531402 0.0114382 -0.732257 0 0 0 70 46 42
-0.0531354 0.0121705 -0.730864 0 0 0 66 42 38
-0.0530324 0.0113368 -0.729011 0 0 0 62 39 31
-0.0530153 0.0118718 -0.727563 0 0 0 63 42 25
-0.0529982 0.0124065 -0.726116 0 0 0 62 41 22
-0.0529689 0.0127445 -0.724613 0 0 0 61 38 24
-0.052915 0.0126889 -0.722999 0 0 0 63 39 27
-0.0528734 0.0128285 -0.721444 0 0 0 61 36 29
-0.0528563 0.0133606 -0.720001 0 0 0 60 35 30
-0.0527412 0.0123168 -0.718118 0 0 0 62 37 32
-0.0527364 0.013044 -0.716735 0 0 0 60 35 30
-0.0527315 0.0137712 -0.715351 0 0 0 58 33 28
-0.0527267 0.0144984 -0.713968 0 0 0 60 35 31
-0.0526362 0.0138419 -0.712207 0 0 0 60 36 32
-0.0525579 0.0133808 -0.710505 0 0 0 55 31 27
-0.0525163 0.0135116 -0.708966 0 0 0 57 33 29
-0.0524625 0.0134433 -0.707377 0 0 0 61 38 32
-0.0524577 0.0141671 -0.706 0 0 0 61 38 30
-0.0524529 0.0148908 -0.704623 0 0 0 57 33 23
-0.0524236 0.0152171 -0.703142 0 0 0 54 30 20
-0.0524188 0.0159405 -0.701766 0 0 0 53 29 17
-0.052414 0.0166639 -0.70039 0 0 0 52 29 15
-0.0524092 0.0173873 -0.699014 0 0 0 50 26 14
-0.0523555 0.0173131 -0.697435 0 0 0 47 23 13
-0.0522406 0.0162395 -0.695609 0 0 0 39 17 6
-0.0522358 0.0169604 -0.694237 0 0 0 31 13 0
-0.052231 0.0176816 -0.692865 0 0 0 28 12 0
-0.0522262 0.0184027 -0.691493 0 0 0 23 9 0
-0.0521848 0.0185229 -0.689974 0 0 0 21 7 4
-0.0521188 0.0182411 -0.688361 0 0 0 21 6 11
-0.0521018 0.0187602 -0.686943 0 0 0 19 4 11
-0.0519259 0.0166685 -0.684904 0 0 0 20 4 7
-0.051898 0.0170059 -0.68345 0 0 0 20 5 2
-0.0518933 0.0177226 -0.682087 0 0 0 25 11 0
-0.0517405 0.0160011 -0.680156 0 0 0 34 21 2
-0.0517358 0.0167158 -0.678796 0 0 0 42 31 11
-0.0516944 0.0168253 -0.677298 0 0 0 46 37 20
-0.0517018 0.0177413 -0.675985 0 0 0 51 42 33
-0.0517215 0.0188597 -0.674717 0 0 0 56 47 42
-0.0517168 0.0195744 -0.673357 0 0 0 54 40 37
-0.051712 0.020289 -0.671998 0 0 0 34 18 18
-0.0517073 0.0210037 -0.670638 0 0 0 19 3 4
-0.0517026 0.0217183 -0.669279 0 0 0 19 0 4
-0.051191 0.0140122 -0.666098 0 0 0 21 1 10
-0.0510703 0.0127905 -0.664338 0 0 0 23 2 11
-0.0523432 0.00363334 -0.770744 0 0 0 54 28 31
-0.0523383 0.00437522 -0.769333 0 0 0 59 34 38
-0.0523334 0.00511711 -0.767922 0 0 0 56 32 30
-0.0523523 0.00624208 -0.766641 0 0 0 59 39 32
-0.0523473 0.00698432 -0.765229 0 0 0 52 32 25
-0.0523424 0.00772655 -0.763817 0 0 0 49 29 20
-0.0523375 0.00846879 -0.762405 0 0 0 45 26 11
-0.0523325 0.00921102 -0.760993 0 0 0 60 42 22
-0.0523038 0.00956844 -0.759453 0 0 0 63 44 27
-0.0522394 0.00934725 -0.757724 0 0 0 63 41 30
-0.0522344 0.0100883 -0.756314 0 0 0 69 43 44
-0.0522295 0.0108293 -0.754905 0 0 0 74 47 52
-0.0521889 0.0109909 -0.753307 0 0 0 73 44 48
-0.0521602 0.0113447 -0.751774 0 0 0 68 40 39
-0.0521553 0.0120849 -0.750366 0 0 0 70 40 38
-0.0521147 0.0122441 -0.748774 0 0 0 73 45 44
-0.0521097 0.0129837 -0.747367 0 0 0 72 45 52
-0.0520335 0.0125594 -0.745595 0 0 0 71 43 55
-0.0519572 0.012133 -0.743827 0 0 0 76 46 56
-0.0519523 0.0128705 -0.742423 0 0 0 79 50 54
-0.0519355 0.0134134 -0.74096 0 0 0 78 49 41
-0.0518949 0.0135666 -0.739379 0 0 0 75 48 31
-0.051783 0.0125495 -0.737445 0 0 0 74 47 26
-0.0517306 0.0125046 -0.735811 0 0 0 72 44 30
-0.051702 0.0128487 -0.734296 0 0 0 69 44 40
-0.0515663 0.0114333 -0.73226 0 0 0 72 47 50
-0.0515615 0.0121656 -0.730867 0 0 0 69 45 45
-0.0514615 0.011332 -0.729013 0 0 0 64 40 36
-0.0514448 0.011867 -0.727566 0 0 0 65 43 30
-0.0514281 0.0124016 -0.726119 0 0 0 64 43 26
-0.0513995 0.0127396 -0.724616 0 0 0 61 38 22
-0.0513471 0.0126841 -0.723002 0 0 0 60 36 26
-0.0513066 0.0128236 -0.721447 0 0 0 61 35 34
-0.0512899 0.0133557 -0.720004 0 0 0 60 34 37
-0.0511782 0.0123119 -0.718121 0 0 0 61 35 38
-0.0511496 0.0126448 -0.716628 0 0 0 60 34 35
-0.0511448 0.0133717 -0.715245 0 0 0 57 31 32
-0.0510331 0.012321 -0.713375 0 0 0 60 34 33
-0.0509808 0.0122557 -0.71178 0 0 0 61 36 32
-0.0509048 0.0117932 -0.71008 0 0 0 55 30 25
-0.0509 0.0125168 -0.708703 0 0 0 61 36 29
-0.0508952 0.0132403 -0.707327 0 0 0 58 36 25
-0.0508904 0.0139639 -0.70595 0 0 0 55 33 20
-0.0508618 0.0142904 -0.704469 0 0 0 53 31 17
-0.0508214 0.0144175 -0.702938 0 0 0 55 33 20
-0.0508166 0.0151402 -0.701563 0 0 0 55 33 20
-0.0508118 0.0158629 -0.700188 0 0 0 46 27 13
-0.050807 0.0165856 -0.698813 0 0 0 36 16 7
-0.0508022 0.0173083 -0.697438 0 0 0 35 16 10
-0.0506907 0.0162347 -0.695612 0 0 0 25 7 3
-0.0506859 0.0169557 -0.69424 0 0 0 16 1 0
-0.0506811 0.0176768 -0.692868 0 0 0 13 0 0
-0.0506763 0.0183979 -0.691496 0 0 0 12 0 0
-0.050636 0.0185181 -0.689977 0 0 0 11 0 0
-0.050572 0.0182363 -0.688364 0 0 0 15 0 7
-0.0505553 0.0187555 -0.686946 0 0 0 15 0 7
-0.0503847 0.0166637 -0.684907 0 0 0 15 0 2
-0.0502022 0.014366 -0.68283 0 0 0 16 1 0
-0.0501145 0.0136723 -0.68114 0 0 0 21 7 0
-0.0499794 0.0121708 -0.679268 0 0 0 30 17 0
-0.0499688 0.0127815 -0.677891 0 0 0 41 30 8
-0.0499226 0.0127869 -0.676376 0 0 0 48 40 19
-0.0499179 0.0134975 -0.675024 0 0 0 55 46 31
-0.0499191 0.0143092 -0.673695 0 0 0 59 49 40
-0.0499144 0.0150199 -0.672343 0 0 0 39 25 22
-0.0499096 0.0157307 -0.670991 0 0 0 21 5 6
-0.0499049 0.0164414 -0.669639 0 0 0 21 2 4
-0.0499002 0.0171521 -0.668287 0 0 0 23 4 8
-0.0497932 0.0161091 -0.666555 0 0 0 25 4 11
-0.0497885 0.0168183 -0.665206 0 0 0 29 8 15
-0.0497838 0.0175275 -0.663857 0 0 0 26 3 13
-0.0497791 0.0182367 -0.662507 0 0 0 23 0 8
-0.0497744 0.0189459 -0.661158 0 0 0 25 2 10
-0.0506333 0.00171803 -0.770083 0 0 0 50 21 25
-0.0507438 0.0043703 -0.769336 0 0 0 59 32 37
-0.0507388 0.00511219 -0.767925 0 0 0 64 39 34
-0.0507339 0.00585408 -0.766513 0 0 0 61 38 30
-0.050729 0.00659597 -0.765102 0 0 0 54 33 28
-0.0507241 0.00733786 -0.76369 0 0 0 46 25 24
-0.0507191 0.00807975 -0.762279 0 0 0 36 16 18
-0.0507142 0.00882162 -0.760867 0 0 0 30 10 11
-0.0507093 0.00956352 -0.759456 0 0 0 28 9 3
-0.0506467 0.00934232 -0.757727 0 0 0 30 11 4
-0.0506418 0.0100833 -0.756317 0 0 0 35 15 6
-0.0506369 0.0108243 -0.754908 0 0 0 42 22 13
-0.0505974 0.010986 -0.75331 0 0 0 49 26 20
-0.0505694 0.0113398 -0.751777 0 0 0 52 27 23
-0.0505645 0.0120799 -0.750369 0 0 0 59 31 27
-0.050525 0.0122392 -0.748777 0 0 0 67 39 35
-0.0505201 0.0129788 -0.74737 0 0 0 75 49 48
-0.0504461 0.0125545 -0.745598 0 0 0 79 53 54
-0.0503721 0.0121281 -0.743829 0 0 0 82 53 55
-0.0503672 0.0128656 -0.742426 0 0 0 81 53 50
-0.0503507 0.0134085 -0.740963 0 0 0 80 52 40
-0.0503113 0.0135617 -0.739382 0 0 0 78 49 31
-0.0502028 0.0125446 -0.737448 0 0 0 74 45 27
-0.0501518 0.0124997 -0.735814 0 0 0 73 45 33
-0.0501239 0.0128438 -0.734299 0 0 0 77 49 48
-0.0499924 0.0114285 -0.732263 0 0 0 73 46 51
-0.0499876 0.0121607 -0.73087 0 0 0 69 43 46
-0.0498906 0.0113271 -0.729016 0 0 0 66 41 37
-0.0498743 0.0118621 -0.727569 0 0 0 68 41 30
-0.0498579 0.0123968 -0.726122 0 0 0 68 42 25
-0.0498301 0.0127348 -0.724619 0 0 0 66 39 22
-0.0497792 0.0126792 -0.723005 0 0 0 63 35 24
-0.0497399 0.0128188 -0.72145 0 0 0 62 36 39
-0.0497235 0.0133509 -0.720007 0 0 0 64 38 47
-0.0496152 0.0123071 -0.718124 0 0 0 66 39 48
-0.0495183 0.011457 -0.716302 0 0 0 65 38 45
-0.049479 0.0115909 -0.714758 0 0 0 64 35 39
-0.0494167 0.0113288 -0.713107 0 0 0 64 36 35
-0.0493315 0.0106696 -0.711352 0 0 0 64 36 32
-0.0493037 0.0109971 -0.709869 0 0 0 64 37 26
-0.0492989 0.01172 -0.708494 0 0 0 62 36 21
-0.0492941 0.0124428 -0.707118 0 0 0 52 29 11
-0.0492893 0.0131657 -0.705743 0 0 0 47 26 9
-0.0492385 0.0130944 -0.704159 0 0 0 48 29 14
-0.0491992 0.0132204 -0.70263 0 0 0 48 30 20
-0.0491944 0.013942 -0.701257 0 0 0 40 22 18
-0.0491782 0.0144646 -0.699833 0 0 0 30 14 15
-0.0490815 0.0135921 -0.698053 0 0 0 25 10 13
-0.0490423 0.0137139 -0.696532 0 0 0 17 5 5
-0.049026 0.0142338 -0.695113 0 0 0 15 4 2
-0.0490212 0.0149532 -0.693744 0 0 0 13 3 2
-0.0490164 0.0156726 -0.692375 0 0 0 12 2 1
-0.0490117 0.0163919 -0.691007 0 0 0 10 0 1
-0.0489495 0.01611 -0.689394 0 0 0 10 0 3
-0.0489103 0.016227 -0.687881 0 0 0 14 2 6
-0.0488252 0.0155406 -0.686178 0 0 0 20 5 8
-0.0485737 0.0119398 -0.683785 0 0 0 21 6 3
-0.0484428 0.010442 -0.681906 0 0 0 36 19 12
-0.0484381 0.0111531 -0.680553 0 0 0 42 26 11
-0.0483932 0.0111595 -0.679036 0 0 0 49 34 15
-0.0483885 0.01187 -0.677685 0 0 0 52 37 16
-0.0483379 0.0117737 -0.676148 0 0 0 51 39 17
-0.0482644 0.0112722 -0.674523 0 0 0 55 47 24
-0.0481679 0.0103648 -0.67281 0 0 0 58 49 34
-0.048169 0.0111732 -0.671487 0 0 0 28 14 13
-0.0481643 0.0118806 -0.670141 0 0 0 22 5 11
-0.0481596 0.012588 -0.668795 0 0 0 18 0 5
-0.0481549 0.0132954 -0.667449 0 0 0 19 0 4
-0.0482689 0.0161043 -0.666558 0 0 0 24 3 8
-0.0482642 0.0168136 -0.665209 0 0 0 26 5 10
-0.0482595 0.0175228 -0.663859 0 0 0 26 6 8
-0.0482547 0.018232 -0.66251 0 0 0 25 5 7
-0.04825 0.0189412 -0.661161 0 0 0 25 5 7
-0.0490053 0.00107632 -0.769864 0 0 0 66 36 38
-0.0490599 0.00283568 -0.76881 0 0 0 65 39 40
-0.0490885 0.0041503 -0.767599 0 0 0 63 38 31
-0.0491171 0.00546603 -0.766385 0 0 0 61 38 30
-0.0491121 0.00620757 -0.764974 0 0 0 57 36 33
-0.0491072 0.00694912 -0.763564 0 0 0 42 21 26
-0.0491023 0.00769065 -0.762153 0 0 0 26 6 18
-0.0490974 0.00843218 -0.760742 0 0 0 22 2 14
-0.0490255 0.00801913 -0.758948 0 0 0 16 0 1
-0.0489983 0.00837433 -0.757413 0 0 0 16 0 0
-0.0489934 0.00911447 -0.756005 0 0 0 19 2 0
-0.0489885 0.00985462 -0.754596 0 0 0 26 8 0
-0.0489835 0.0105947 -0.753188 0 0 0 34 14 5
-0.0488616 0.00930534 -0.751128 0 0 0 39 19 12
-0.0488399 0.00975338 -0.74963 0 0 0 47 24 16
-0.048835 0.0104914 -0.748226 0 0 0 54 31 25
-0.0488301 0.0112295 -0.746822 0 0 0 63 39 39
-0.0488252 0.0119675 -0.745418 0 0 0 73 47 50
-0.0487869 0.0121232 -0.743832 0 0 0 78 52 55
-0.0487486 0.0122776 -0.742249 0 0 0 81 53 52
-0.0487103 0.0124309 -0.740667 0 0 0 79 51 40
-0.0486831 0.012778 -0.739147 0 0 0 77 48 34
-0.0485779 0.0117603 -0.737214 0 0 0 76 47 31
-0.0485508 0.0121048 -0.735699 0 0 0 78 50 39
-0.0484791 0.0116676 -0.733951 0 0 0 76 48 47
-0.0484185 0.0114236 -0.732266 0 0 0 78 49 53
-0.0483023 0.0102003 -0.730294 0 0 0 78 49 53
-0.0482975 0.0109308 -0.728904 0 0 0 75 47 46
-0.0482926 0.0116614 -0.727515 0 0 0 72 43 35
-0.0482099 0.0110193 -0.725727 0 0 0 71 41 30
-0.0481716 0.0111597 -0.72417 0 0 0 72 40 29
-0.0481223 0.0111028 -0.722559 0 0 0 69 38 33
-0.0480618 0.0108478 -0.720894 0 0 0 73 44 48
-0.0480014 0.010591 -0.719233 0 0 0 70 43 52
-0.0479298 0.0101355 -0.71752 0 0 0 67 40 47
-0.0478805 0.0100723 -0.715921 0 0 0 64 37 42
-0.0478089 0.00961296 -0.714215 0 0 0 67 38 42
-0.047793 0.0101391 -0.712785 0 0 0 70 42 41
-0.0477548 0.0102694 -0.711247 0 0 0 70 43 36
-0.0476833 0.00980524 -0.709551 0 0 0 64 40 28
-0.0476785 0.010527 -0.708177 0 0 0 60 37 21
-0.0476737 0.0112489 -0.706804 0 0 0 52 31 14
-0.0476689 0.0119707 -0.705431 0 0 0 42 25 9
-0.0476641 0.0126925 -0.704058 0 0 0 38 22 9
-0.0476038 0.0124207 -0.702425 0 0 0 30 15 8
-0.0475768 0.0127438 -0.700951 0 0 0 21 7 6
-0.0474942 0.012071 -0.699221 0 0 0 14 2 6
-0.0473339 0.010001 -0.697141 0 0 0 14 1 8
-0.0473069 0.0103191 -0.695676 0 0 0 11 1 2
-0.0473244 0.0114349 -0.694413 0 0 0 12 2 1
-0.0473196 0.0121518 -0.693049 0 0 0 12 2 1
-0.0473148 0.0128687 -0.691685 0 0 0 11 1 0
-0.0473101 0.0135856 -0.690321 0 0 0 10 0 0
-0.0473053 0.0143026 -0.688957 0 0 0 11 1 0
-0.0472395 0.0139169 -0.687326 0 0 0 15 1 0
-0.0468906 0.00841334 -0.68447 0 0 0 17 2 0
-0.0468803 0.00902341 -0.683094 0 0 0 34 17 7
-0.0468534 0.00933196 -0.681647 0 0 0 47 29 17
-0.0468487 0.0100421 -0.680296 0 0 0 52 35 19
-0.0467774 0.00954411 -0.678664 0 0 0 57 40 24
-0.0467505 0.0098501 -0.677222 0 0 0 59 42 24
-0.0466682 0.00914712 -0.67555 0 0 0 57 42 23
-0.046608 0.00884539 -0.673975 0 0 0 60 49 31
-0.0465035 0.00773368 -0.672221 0 0 0 62 50 38
-0.046521 0.00884322 -0.67097 0 0 0 26 11 14
-0.0465385 0.00995339 -0.669718 0 0 0 21 4 12
-0.0465338 0.0106591 -0.668375 0 0 0 16 0 5
-0.046579 0.0122771 -0.667231 0 0 0 19 0 4
-0.0467446 0.0160996 -0.666561 0 0 0 23 4 6
-0.0467398 0.0168089 -0.665212 0 0 0 26 6 8
-0.0467351 0.0175181 -0.663862 0 0 0 26 6 7
-0.0467304 0.0182273 -0.662513 0 0 0 25 5 6
-0.0467257 0.0189365 -0.661164 0 0 0 27 7 8
-0.0473276 -0.000488695 -0.769324 0 0 0 75 47 44
-0.0474306 0.00216154 -0.768581 0 0 0 71 45 44
-0.0474419 0.00318843 -0.767272 0 0 0 64 41 35
-0.047437 0.00392857 -0.765864 0 0 0 64 43 38
-0.0474321 0.00466872 -0.764456 0 0 0 62 42 44
-0.0474272 0.00540887 -0.763048 0 0 0 39 19 28
-0.0474222 0.006149 -0.76164 0 0 0 18 0 14
-0.0474173 0.00688914 -0.760232 0 0 0 16 0 14
-0.0474124 0.00762928 -0.758824 0 0 0 14 0 5
-0.0474075 0.00836942 -0.757416 0 0 0 13 0 0
-0.0474026 0.00910956 -0.756008 0 0 0 12 0 0
-0.0473977 0.00984969 -0.754599 0 0 0 13 0 0
-0.0473443 0.0097208 -0.75291 0 0 0 19 2 0
-0.0472424 0.00872054 -0.750944 0 0 0 22 5 0
-0.0472267 0.00926483 -0.749479 0 0 0 27 8 1
-0.0472003 0.00961507 -0.747953 0 0 0 29 10 6
-0.0471954 0.0103523 -0.74655 0 0 0 33 10 18
-0.0471689 0.0107016 -0.745026 0 0 0 33 9 22
-0.0471371 0.010953 -0.743472 0 0 0 38 12 25
-0.0470892 0.0109122 -0.741831 0 0 0 48 21 30
-0.0470197 0.0104808 -0.740072 0 0 0 64 36 35
-0.0469933 0.0108261 -0.738555 0 0 0 72 43 35
-0.0469023 0.0100016 -0.736685 0 0 0 71 43 31
-0.0468651 0.0101493 -0.735114 0 0 0 70 42 31
-0.0468387 0.0104912 -0.733603 0 0 0 77 49 46
-0.0467693 0.010051 -0.731861 0 0 0 80 51 53
-0.0467214 0.00999985 -0.730239 0 0 0 82 53 55
-0.0466305 0.00916428 -0.72839 0 0 0 79 51 50
-0.0466149 0.00969725 -0.726946 0 0 0 76 47 43
-0.0465348 0.0090535 -0.725161 0 0 0 75 44 41
-0.04653 0.00978106 -0.723777 0 0 0 77 43 44
-0.0464714 0.00952637 -0.722112 0 0 0 77 42 46
-0.0463805 0.00868015 -0.720283 0 0 0 76 44 47
-0.0461929 0.00606006 -0.717959 0 0 0 75 45 47
-0.0461451 0.00599445 -0.716365 0 0 0 72 43 45
-0.0461403 0.00671608 -0.714992 0 0 0 69 43 44
-0.0461248 0.00724031 -0.713564 0 0 0 71 47 45
-0.0460233 0.0061843 -0.711704 0 0 0 71 47 43
-0.045954 0.00571829 -0.710011 0 0 0 60 40 33
-0.045917 0.00584369 -0.708483 0 0 0 46 27 20
-0.0459123 0.00656201 -0.707117 0 0 0 41 24 16
-0.0459075 0.00728032 -0.70575 0 0 0 32 18 9
-0.0459027 0.00799864 -0.704383 0 0 0 27 13 4
-0.045898 0.00871697 -0.703017 0 0 0 23 10 2
-0.045861 0.00883904 -0.701495 0 0 0 19 6 0
-0.0458455 0.00935798 -0.700078 0 0 0 12 1 0
-0.0457763 0.00888121 -0.698405 0 0 0 10 0 0
-0.0457286 0.00880082 -0.696838 0 0 0 12 0 0
-0.0457131 0.00931736 -0.695426 0 0 0 11 0 0
-0.0457084 0.0100331 -0.694064 0 0 0 13 2 0
-0.0456768 0.0102494 -0.692578 0 0 0 13 2 0
-0.0455755 0.00916519 -0.690772 0 0 0 13 2 0
-0.045402 0.00673266 -0.68864 0 0 0 17 7 0
-0.0452227 0.00418354 -0.686492 0 0 0 28 16 4
-0.0452019 0.00459092 -0.685072 0 0 0 38 25 9
-0.0451972 0.00529876 -0.683726 0 0 0 43 28 9
-0.0451925 0.00600661 -0.682379 0 0 0 51 33 13
-0.0451878 0.0067144 -0.681032 0 0 0 59 41 21
-0.0451831 0.00742223 -0.679686 0 0 0 62 43 26
-0.0451355 0.00732481 -0.678151 0 0 0 65 46 31
-0.0451201 0.00783047 -0.67676 0 0 0 63 45 35
-0.0450404 0.0071257 -0.675091 0 0 0 59 42 35
-0.0450035 0.00722578 -0.673611 0 0 0 61 46 43
-0.0449131 0.00631475 -0.671905 0 0 0 58 44 44
-0.0449513 0.00782751 -0.670747 0 0 0 23 8 15
-0.0450216 0.0099487 -0.66972 0 0 0 17 1 11
-0.0450169 0.0106544 -0.668378 0 0 0 13 0 5
-0.0450604 0.0122724 -0.667234 0 0 0 16 0 5
-0.0452202 0.0160949 -0.666564 0 0 0 20 4 7
-0.0452155 0.0168041 -0.665214 0 0 0 25 6 8
-0.0452108 0.0175134 -0.663865 0 0 0 26 6 7
-0.0452061 0.0182226 -0.662516 0 0 0 26 6 5
-0.0452014 0.0189318 -0.661167 0 0 0 28 8 7
-0.0449061 0.01411 -0.658671 0 0 0 28 8 7
-0.0449015 0.0148145 -0.657331 0 0 0 28 7 6
-0.0456214 -0.00269042 -0.768563 0 0 0 74 47 40
-0.0457311 0.000149097 -0.76789 0 0 0 76 53 47
-0.0457418 0.00117414 -0.766585 0 0 0 71 50 45
-0.0457369 0.00191244 -0.76518 0 0 0 71 51 52
-0.045732 0.00265076 -0.763775 0 0 0 69 50 56
-0.0457271 0.00338907 -0.762371 0 0 0 44 24 36
-0.0457222 0.00412738 -0.760966 0 0 0 17 0 15
-0.0457173 0.00486569 -0.759561 0 0 0 15 0 14
-0.0456812 0.00502673 -0.757965 0 0 0 18 2 13
-0.0456607 0.00547568 -0.756467 0 0 0 14 1 8
-0.0456558 0.00621319 -0.755063 0 0 0 12 0 2
-0.0456509 0.00695072 -0.75366 0 0 0 10 0 0
-0.045646 0.00768825 -0.752257 0 0 0 11 0 0
-0.0455787 0.00726588 -0.750481 0 0 0 12 0 0
-0.0455738 0.00800235 -0.74908 0 0 0 14 0 0
-0.0455689 0.00873883 -0.747679 0 0 0 12 0 0
-0.045564 0.0094753 -0.746278 0 0 0 21 2 6
-0.0455591 0.0102118 -0.744877 0 0 0 17 0 8
-0.0454607 0.00920064 -0.742931 0 0 0 17 0 10
-0.0454142 0.00915813 -0.741292 0 0 0 31 5 18
-0.045347 0.00872517 -0.739536 0 0 0 51 24 29
-0.045311 0.0088742 -0.737963 0 0 0 64 39 35
-0.0452438 0.00843758 -0.736214 0 0 0 71 44 35
-0.0452078 0.00858406 -0.734646 0 0 0 72 45 36
-0.0451718 0.00872953 -0.73308 0 0 0 73 45 41
-0.0451461 0.00906928 -0.731574 0 0 0 75 47 44
-0.0450478 0.00803927 -0.729664 0 0 0 76 48 45
-0.0449911 0.00778917 -0.72799 0 0 0 75 47 43
-0.0448409 0.00577407 -0.725805 0 0 0 75 46 40
-0.0448361 0.00649937 -0.724425 0 0 0 75 44 42
-0.0448313 0.00722467 -0.723046 0 0 0 77 42 48
-0.0448264 0.00794998 -0.721666 0 0 0 76 41 45
-0.0447282 0.00690572 -0.719783 0 0 0 74 41 34
-0.0446301 0.00585843 -0.717907 0 0 0 76 46 35
-0.0445837 0.0057926 -0.716312 0 0 0 75 48 37
-0.044579 0.00651407 -0.71494 0 0 0 71 46 39
-0.0445223 0.00624896 -0.713295 0 0 0 68 47 42
-0.0444346 0.00538966 -0.71149 0 0 0 65 47 43
-0.0443779 0.0051206 -0.709853 0 0 0 51 36 33
-0.0443732 0.00583892 -0.708486 0 0 0 36 22 19
-0.0443684 0.00655724 -0.707119 0 0 0 19 8 4
-0.0443636 0.00727544 -0.705753 0 0 0 13 4 0
-0.0443485 0.00779542 -0.704334 0 0 0 10 1 0
-0.0442815 0.00732243 -0.702654 0 0 0 11 2 0
-0.044256 0.0076421 -0.701186 0 0 0 14 3 0
-0.044158 0.00656881 -0.699359 0 0 0 14 3 0
-0.0441533 0.00728398 -0.697998 0 0 0 13 2 0
-0.0441485 0.00799917 -0.696638 0 0 0 15 1 0
-0.0441438 0.00871434 -0.695277 0 0 0 12 0 0
-0.044139 0.00942953 -0.693917 0 0 0 19 5 0
-0.04372 0.00215436 -0.690562 0 0 0 23 9 0
-0.0435393 -0.000536412 -0.688372 0 0 0 24 10 0
-0.0435864 0.0011694 -0.687277 0 0 0 30 17 1
-0.0435817 0.00187551 -0.685933 0 0 0 42 29 12
-0.0435977 0.00298258 -0.684687 0 0 0 56 41 20
-0.043593 0.00368903 -0.683343 0 0 0 61 45 22
-0.0435883 0.00439549 -0.681999 0 0 0 61 40 19
-0.0435836 0.00510193 -0.680655 0 0 0 67 46 27
-0.0435789 0.00580839 -0.679311 0 0 0 67 45 31
-0.0435329 0.00570951 -0.677779 0 0 0 68 46 35
-0.0435075 0.00601219 -0.676344 0 0 0 63 42 37
-0.0434821 0.00631421 -0.674909 0 0 0 59 39 38
-0.0434361 0.00621189 -0.673384 0 0 0 60 41 45
-0.0433797 0.005906 -0.671816 0 0 0 51 36 41
-0.0434164 0.00741837 -0.670659 0 0 0 17 4 11
-0.0434944 0.00974161 -0.669678 0 0 0 12 1 7
-0.0435001 0.0106497 -0.668381 0 0 0 10 0 2
-0.0435419 0.0122677 -0.667237 0 0 0 14 0 2
-0.0436959 0.0160902 -0.666567 0 0 0 18 4 4
-0.0436912 0.0167994 -0.665217 0 0 0 21 5 5
-0.0436865 0.0175087 -0.663868 0 0 0 25 7 5
-0.0436818 0.0182179 -0.662519 0 0 0 27 7 6
-0.0436771 0.0189271 -0.661169 0 0 0 28 8 7
-0.043392 0.0141054 -0.658674 0 0 0 29 10 6
-0.0433873 0.0148098 -0.657334 0 0 0 30 9 6
-0.043979 -0.00384151 -0.768167 0 0 0 74 50 38
-0.0440645 -0.00138558 -0.767364 0 0 0 82 59 51
-0.0440797 -0.000266122 -0.766094 0 0 0 79 58 57
-0.0440748 0.000470878 -0.764692 0 0 0 79 56 64
-0.0440699 0.00120788 -0.76329 0 0 0 79 57 70
-0.044065 0.00194488 -0.761888 0 0 0 58 37 52
-0.0440601 0.00268189 -0.760485 0 0 0 28 10 26
-0.0440552 0.00341888 -0.759083 0 0 0 16 0 15
-0.0440503 0.00415588 -0.757681 0 0 0 12 0 13
-0.0439652 0.00335198 -0.755771 0 0 0 9 0 9
-0.0439503 0.00389483 -0.754309 0 0 0 11 0 9
-0.0439454 0.00463027 -0.752909 0 0 0 11 0 6
-0.0439105 0.00478645 -0.751323 0 0 0 9 0 0
-0.0439056 0.00552135 -0.749925 0 0 0 10 1 0
-0.0439007 0.00625614 -0.748527 0 0 0 13 2 0
-0.0438958 0.00699104 -0.747128 0 0 0 12 1 0
-0.0438074 0.0061107 -0.745221 0 0 0 11 0 0
-0.0438026 0.00684414 -0.743825 0 0 0 16 0 0
-0.0437977 0.00757759 -0.74243 0 0 0 20 0 9
-0.0437636 0.00774418 -0.740859 0 0 0 23 1 13
-0.0437212 0.0077476 -0.73924 0 0 0 26 3 13
-0.0437063 0.00828515 -0.737788 0 0 0 32 7 13
-0.0436313 0.00765329 -0.735981 0 0 0 43 17 18
-0.0435764 0.00740891 -0.734296 0 0 0 54 29 25
-0.0435215 0.00716289 -0.732615 0 0 0 65 40 36
-0.0434066 0.00574269 -0.730588 0 0 0 71 46 39
-0.0433217 0.00490539 -0.728742 0 0 0 77 53 41
-0.0432668 0.00465245 -0.727073 0 0 0 81 55 42
-0.043242 0.00498563 -0.72558 0 0 0 81 53 39
-0.0432372 0.00571023 -0.724201 0 0 0 81 51 41
-0.0431923 0.00564981 -0.722596 0 0 0 82 48 49
-0.0431675 0.00598077 -0.721107 0 0 0 81 48 43
-0.0431427 0.00631114 -0.719619 0 0 0 78 48 20
-0.0430179 0.00467282 -0.717577 0 0 0 75 49 14
-0.0429331 0.00381812 -0.715763 0 0 0 65 41 15
-0.0429183 0.00434072 -0.714339 0 0 0 48 27 10
-0.0428436 0.00367919 -0.712589 0 0 0 34 17 9
-0.0428388 0.00439751 -0.711222 0 0 0 28 14 13
-0.0427541 0.00353449 -0.709425 0 0 0 19 9 10
-0.0427493 0.00425141 -0.708061 0 0 0 12 3 6
-0.0427246 0.00457224 -0.706591 0 0 0 10 4 4
-0.0427098 0.00509078 -0.705174 0 0 0 8 3 0
-0.0426751 0.00521205 -0.703654 0 0 0 6 1 0
-0.0426504 0.00553084 -0.702188 0 0 0 7 0 0
-0.0425757 0.00485541 -0.700463 0 0 0 9 0 0
-0.0424611 0.00338184 -0.698538 0 0 0 12 0 2
-0.0424514 0.00399474 -0.697157 0 0 0 17 2 7
-0.0422969 0.00171849 -0.695039 0 0 0 21 6 3
-0.0422672 0.00192962 -0.693562 0 0 0 34 19 0
-0.0420329 -0.00195156 -0.691058 0 0 0 45 31 2
-0.0420282 -0.00124632 -0.689717 0 0 0 54 40 13
-0.0420235 -0.000541093 -0.688375 0 0 0 55 40 17
-0.0420189 0.000164128 -0.687033 0 0 0 55 40 19
-0.0420042 0.000669109 -0.685643 0 0 0 60 43 25
-0.0420095 0.00157459 -0.68435 0 0 0 64 45 30
-0.0420048 0.00227981 -0.683008 0 0 0 66 44 31
-0.0420001 0.00298505 -0.681667 0 0 0 65 41 29
-0.0419954 0.00369027 -0.680325 0 0 0 69 42 33
-0.0419908 0.0043955 -0.678983 0 0 0 67 40 33
-0.0419861 0.00510072 -0.677642 0 0 0 67 42 37
-0.0419814 0.00580594 -0.6763 0 0 0 64 40 36
-0.0419069 0.00509944 -0.674635 0 0 0 60 39 38
-0.0418923 0.00560156 -0.673249 0 0 0 58 40 40
-0.0418677 0.00590133 -0.671819 0 0 0 46 30 31
-0.041873 0.00680697 -0.670526 0 0 0 13 2 8
-0.0418982 0.00811785 -0.669322 0 0 0 9 0 7
-0.0418935 0.00882205 -0.667982 0 0 0 8 0 3
-0.0419486 0.0107427 -0.666908 0 0 0 10 0 3
-0.042056 0.0137305 -0.66606 0 0 0 14 2 4
-0.0420513 0.0144377 -0.664715 0 0 0 19 5 5
-0.0420466 0.0151449 -0.663369 0 0 0 22 6 6
-0.0420419 0.015852 -0.662024 0 0 0 26 8 6
-0.0420372 0.0165592 -0.660678 0 0 0 26 7 3
-0.0418779 0.0141007 -0.658677 0 0 0 29 10 6
-0.0418732 0.0148052 -0.657337 0 0 0 33 12 9
0.00170402 0.808271 0.488275 0 0 0 122 85 76
-0.0423991 -0.00384639 -0.76817 0 0 0 81 58 44
-0.0423943 -0.00311132 -0.766772 0 0 0 87 65 54
-0.0423894 -0.00237624 -0.765373 0 0 0 84 62 65
-0.0423845 -0.00164116 -0.763975 0 0 0 83 59 72
-0.0423796 -0.00090608 -0.762576 0 0 0 85 62 78
-0.0423651 -0.000362875 -0.761113 0 0 0 74 53 68
-0.0422926 -0.000972507 -0.759263 0 0 0 47 29 41
-0.0422588 -0.000815613 -0.757675 0 0 0 27 11 22
-0.0422442 -0.000274851 -0.756216 0 0 0 19 5 18
-0.0422008 -0.000312389 -0.754568 0 0 0 12 0 14
-0.0421959 0.000419898 -0.753175 0 0 0 10 0 13
-0.0421621 0.000573346 -0.751593 0 0 0 11 1 10
-0.0421572 0.00130511 -0.750201 0 0 0 8 0 0
-0.041998 -0.00105579 -0.747815 0 0 0 8 0 0
-0.0419621 -0.000950181 -0.746229 0 0 0 11 3 0
-0.0419572 -0.000221769 -0.744843 0 0 0 10 3 0
-0.0419256 -3.18384e-005 -0.743287 0 0 0 10 3 0
-0.0417279 -0.00318386 -0.740686 0 0 0 14 5 0
-0.0417231 -0.00245943 -0.739308 0 0 0 16 4 6
-0.0417183 -0.001735 -0.737929 0 0 0 17 2 7
-0.0418532 0.0026343 -0.736065 0 0 0 18 0 0
-0.0418484 0.00336135 -0.734682 0 0 0 21 2 0
-0.0418436 0.0040884 -0.733299 0 0 0 30 9 6
-0.0418387 0.00481545 -0.731916 0 0 0 48 27 26
-0.0418339 0.00554249 -0.730532 0 0 0 59 38 35
-0.0417328 0.00431383 -0.728571 0 0 0 73 50 42
-0.0416605 0.00366894 -0.726789 0 0 0 77 55 42
-0.0415979 0.00321756 -0.725068 0 0 0 77 54 36
-0.0415931 0.0039406 -0.723692 0 0 0 78 50 36
-0.0415691 0.00427114 -0.722204 0 0 0 79 49 41
-0.0415643 0.00499382 -0.720829 0 0 0 80 50 39
-0.041521 0.00493003 -0.719231 0 0 0 77 52 21
-0.041391 0.00309363 -0.717135 0 0 0 72 50 13
-0.0413092 0.00223779 -0.715325 0 0 0 58 37 10
-0.0413045 0.0029561 -0.713958 0 0 0 36 19 1
-0.0412516 0.0026878 -0.712319 0 0 0 20 6 0
-0.0411987 0.00241777 -0.710683 0 0 0 11 0 0
-0.0411459 0.00214609 -0.709051 0 0 0 8 0 2
-0.0411315 0.002664 -0.707636 0 0 0 6 0 4
-0.0410498 0.00179533 -0.705849 0 0 0 5 0 4
-0.0410451 0.00250946 -0.70449 0 0 0 7 3 4
-0.0409826 0.00203335 -0.702816 0 0 0 8 3 0
-0.0409779 0.00274643 -0.70146 0 0 0 8 0 0
-0.0409251 0.00246604 -0.699844 0 0 0 10 0 0
-0.0408627 0.00198492 -0.69818 0 0 0 19 5 2
-0.040834 0.00219853 -0.696699 0 0 0 31 16 13
-0.0407475 0.00121567 -0.694914 0 0 0 41 25 12
-0.0406564 0.000130236 -0.69311 0 0 0 51 36 7
-0.0405172 -0.00195624 -0.691061 0 0 0 58 44 7
-0.0405125 -0.001251 -0.68972 0 0 0 64 49 16
-0.0405078 -0.000545774 -0.688378 0 0 0 64 48 22
-0.0405031 0.000159447 -0.687036 0 0 0 62 46 23
-0.0404408 -0.00033709 -0.685401 0 0 0 63 44 27
-0.0404361 0.000367213 -0.684062 0 0 0 65 43 29
-0.0404315 0.00107139 -0.682722 0 0 0 65 41 31
-0.0404268 0.00177557 -0.681382 0 0 0 68 41 34
-0.0404221 0.00247975 -0.680043 0 0 0 68 41 34
-0.0404174 0.00318393 -0.678703 0 0 0 67 39 35
-0.0403744 0.00308267 -0.677176 0 0 0 69 44 40
-0.0403697 0.00378613 -0.675837 0 0 0 68 44 42
-0.0403075 0.00327959 -0.674222 0 0 0 64 43 42
-0.0403028 0.00398203 -0.672885 0 0 0 58 40 40
-0.040279 0.00428046 -0.671458 0 0 0 39 25 25
-0.0402935 0.00538691 -0.670213 0 0 0 10 1 6
-0.0403176 0.00669644 -0.669011 0 0 0 6 0 4
-0.0403225 0.00760204 -0.667718 0 0 0 5 0 1
-0.040373 0.00947094 -0.666635 0 0 0 9 0 1
-0.0405049 0.0130663 -0.66592 0 0 0 12 2 1
-0.0405002 0.0137729 -0.664576 0 0 0 15 4 2
-0.0404955 0.0144796 -0.663232 0 0 0 19 5 2
-0.0404908 0.0151862 -0.661887 0 0 0 23 8 3
-0.0404861 0.0158928 -0.660543 0 0 0 24 7 0
-0.0403637 0.014096 -0.65868 0 0 0 30 9 4
-0.0403591 0.0148005 -0.65734 0 0 0 36 13 7
0.00170402 0.808271 0.488275 0 0 0 118 81 72
-0.0407542 -0.00518846 -0.767708 0 0 0 86 60 47
-0.0407494 -0.0044546 -0.766312 0 0 0 87 63 53
-0.0407445 -0.00372076 -0.764915 0 0 0 88 62 71
-0.0407396 -0.00298689 -0.763519 0 0 0 86 62 78
-0.0407347 -0.00225305 -0.762123 0 0 0 84 61 77
-0.0406742 -0.0026706 -0.760338 0 0 0 82 62 74
-0.0406414 -0.00251412 -0.75875 0 0 0 71 54 60
-0.0406366 -0.00178183 -0.757357 0 0 0 56 41 44
-0.0406317 -0.00104955 -0.755964 0 0 0 45 32 41
-0.0405526 -0.00185797 -0.754063 0 0 0 28 14 27
-0.0405292 -0.00151257 -0.752546 0 0 0 18 6 20
-0.0405151 -0.000975013 -0.751094 0 0 0 14 4 15
-0.0404732 -0.00101714 -0.749454 0 0 0 9 0 5
-0.0404127 -0.00144717 -0.747693 0 0 0 4 0 0
-0.0403038 -0.00288983 -0.745613 0 0 0 6 0 0
-0.0402886 -0.00237831 -0.744162 0 0 0 6 0 0
-0.0401911 -0.00359008 -0.742169 0 0 0 9 5 4
-0.0401709 -0.00318867 -0.740689 0 0 0 4 0 0
-0.0401661 -0.00246424 -0.73931 0 0 0 6 0 0
-0.0401612 -0.00173981 -0.737932 0 0 0 8 0 0
-0.040106 0.000399401 -0.732191 0 0 0 15 0 0
-0.0401012 0.00112316 -0.730814 0 0 0 24 8 11
-0.0400964 0.0018469 -0.729437 0 0 0 32 12 21
-0.0400916 0.00257066 -0.72806 0 0 0 41 20 25
-0.0400868 0.0032944 -0.726683 0 0 0 48 27 24
-0.0400254 0.00282098 -0.724957 0 0 0 55 33 20
-0.0400021 0.00315131 -0.723468 0 0 0 59 37 16
-0.039951 0.00289238 -0.721811 0 0 0 62 37 15
-0.0399462 0.00361384 -0.720439 0 0 0 61 36 14
-0.0399044 0.00354884 -0.718843 0 0 0 44 21 3
-0.0398256 0.00269532 -0.717027 0 0 0 38 19 4
-0.0397654 0.00223302 -0.715328 0 0 0 32 14 0
-0.0397236 0.00216271 -0.713742 0 0 0 23 9 0
-0.0396634 0.00169643 -0.712049 0 0 0 15 5 0
-0.0396494 0.00221554 -0.710632 0 0 0 12 2 0
-0.0395891 0.00174607 -0.708946 0 0 0 11 2 3
-0.0395751 0.00226361 -0.707531 0 0 0 11 5 9
-0.039478 0.000998533 -0.705639 0 0 0 5 0 5
-0.0393993 0.000126528 -0.703859 0 0 0 7 1 5
-0.0393761 0.000441828 -0.702399 0 0 0 10 1 2
-0.0393714 0.00115352 -0.701045 0 0 0 15 4 0
-0.0393158 0.000772361 -0.699406 0 0 0 25 13 0
-0.0392511 0.000190316 -0.697719 0 0 0 39 26 7
-0.0392187 0.000302693 -0.696215 0 0 0 54 40 13
-0.0391216 -0.000980545 -0.694358 0 0 0 62 47 16
-0.0390892 -0.000871427 -0.692861 0 0 0 68 52 19
-0.0390014 -0.00196092 -0.691064 0 0 0 68 52 19
-0.0389967 -0.00125569 -0.689722 0 0 0 68 51 23
-0.0389736 -0.000950391 -0.688282 0 0 0 69 52 26
-0.0389689 -0.00024551 -0.686941 0 0 0 70 52 30
-0.0389273 -0.000341758 -0.685404 0 0 0 73 52 33
-0.0389226 0.000362421 -0.684064 0 0 0 74 51 35
-0.038918 0.0010666 -0.682725 0 0 0 77 51 38
-0.0389133 0.00177077 -0.681385 0 0 0 72 45 34
-0.038881 0.00187205 -0.679903 0 0 0 73 44 36
-0.0388671 0.00237451 -0.678517 0 0 0 72 45 38
-0.0388163 0.00207143 -0.676944 0 0 0 75 50 45
-0.038784 0.00216955 -0.675468 0 0 0 74 50 48
-0.0387609 0.00246835 -0.67404 0 0 0 68 46 48
-0.0387562 0.00317009 -0.672705 0 0 0 56 37 39
-0.0387239 0.00326563 -0.671233 0 0 0 29 17 21
-0.0387285 0.00416914 -0.669944 0 0 0 7 1 5
-0.0387422 0.0052753 -0.668699 0 0 0 2 0 3
-0.0387836 0.00698969 -0.667587 0 0 0 4 0 1
-0.0388596 0.00946625 -0.666637 0 0 0 6 0 2
-0.038873 0.0105689 -0.665384 0 0 0 10 1 2
-0.0388683 0.0112734 -0.664044 0 0 0 12 2 1
-0.0388636 0.0119779 -0.662703 0 0 0 18 4 3
-0.038859 0.0126824 -0.661363 0 0 0 22 7 2
-0.0388543 0.0133869 -0.660023 0 0 0 25 8 1
-0.0388496 0.0140913 -0.658683 0 0 0 31 11 4
-0.0388449 0.0147958 -0.657342 0 0 0 37 14 6
-0.0381895 0.001066 -0.653063 0 0 0 38 13 6
-0.0381849 0.00175813 -0.651746 0 0 0 39 12 3
-0.0381803 0.00245026 -0.65043 0 0 0 40 11 3
-0.0381626 0.00285002 -0.649055 0 0 0 41 13 2
0.00170402 0.808271 0.488275 0 0 0 116 79 71
0.00170402 0.808271 0.488275 0 0 0 115 78 70
0.00170402 0.808271 0.488275 0 0 0 117 78 71
-0.0386209 -0.0195871 -0.767581 0 0 0 105 70 66
-0.0387498 -0.0160043 -0.767213 0 0 0 68 33 29
-0.0387539 -0.0150881 -0.7659 0 0 0 74 41 34
-0.0390611 -0.00767675 -0.766846 0 0 0 83 55 43
-0.039074 -0.00656283 -0.765587 0 0 0 83 58 51
-0.0390692 -0.00583088 -0.764194 0 0 0 90 62 74
-0.0390643 -0.00509895 -0.762802 0 0 0 90 63 80
-0.0390595 -0.00436701 -0.761409 0 0 0 82 58 72
-0.0390546 -0.00363507 -0.760017 0 0 0 85 64 73
-0.0389874 -0.00424754 -0.758173 0 0 0 91 73 71
-0.0389736 -0.00370906 -0.756719 0 0 0 87 72 69
-0.0389688 -0.00297851 -0.755329 0 0 0 67 52 55
-0.0389372 -0.00282586 -0.753749 0 0 0 42 26 36
-0.038879 -0.00325244 -0.751981 0 0 0 24 10 23
-0.0388563 -0.00290936 -0.750468 0 0 0 19 7 19
-0.0387625 -0.00411187 -0.748457 0 0 0 12 3 8
-0.0386776 -0.00512472 -0.746515 0 0 0 10 1 6
-0.0386728 -0.00439942 -0.745135 0 0 0 13 3 11
-0.0386591 -0.0038678 -0.743694 0 0 0 9 4 10
-0.0386335 -0.00359489 -0.742172 0 0 0 6 5 10
-0.0386138 -0.00319349 -0.740692 0 0 0 4 3 8
-0.038609 -0.00246905 -0.739313 0 0 0 3 1 4
-0.0386042 -0.00174462 -0.737935 0 0 0 6 0 0
-0.0381104 -0.0117186 -0.733266 0 0 0 9 2 0
-0.0384469 -0.00105075 -0.730166 0 0 0 17 4 11
-0.0384421 -0.000328928 -0.728793 0 0 0 14 1 11
-0.0384373 0.000392889 -0.72742 0 0 0 14 0 6
-0.0384325 0.0011147 -0.726047 0 0 0 21 5 6
-0.0384277 0.0018365 -0.724674 0 0 0 37 20 10
-0.0384229 0.00255831 -0.7233 0 0 0 48 31 13
-0.0383471 0.00171005 -0.721475 0 0 0 53 32 13
-0.0382891 0.00125181 -0.719767 0 0 0 47 28 11
-0.0382843 0.00197118 -0.718399 0 0 0 32 15 7
-0.0382263 0.00150993 -0.716697 0 0 0 22 9 3
-0.0381505 0.000652465 -0.714889 0 0 0 16 2 0
-0.0381014 0.000383773 -0.713251 0 0 0 13 2 0
-0.0380611 0.000310628 -0.711671 0 0 0 11 1 0
-0.0380298 0.000433475 -0.710147 0 0 0 10 0 0
-0.0380073 0.000752912 -0.708679 0 0 0 9 0 2
-0.0379848 0.00107173 -0.707213 0 0 0 9 0 2
-0.0378648 -0.000788225 -0.705163 0 0 0 14 3 7
-0.0378246 -0.000869178 -0.703597 0 0 0 13 1 3
-0.0378066 -0.000455472 -0.702166 0 0 0 15 1 0
-0.0378019 0.000255426 -0.700813 0 0 0 24 10 0
-0.0376775 -0.00171626 -0.698761 0 0 0 43 28 9
-0.0375221 -0.00438867 -0.696537 0 0 0 60 45 16
-0.0375175 -0.0036831 -0.695194 0 0 0 67 53 18
-0.0375128 -0.00297758 -0.693852 0 0 0 68 52 18
-0.0374904 -0.00267082 -0.692409 0 0 0 73 53 28
-0.0373971 -0.00396149 -0.690565 0 0 0 70 49 28
-0.0373924 -0.00325801 -0.689227 0 0 0 67 49 27
-0.0373878 -0.00255452 -0.687888 0 0 0 71 53 33
-0.0373831 -0.00185105 -0.68655 0 0 0 76 55 36
-0.0373784 -0.00114757 -0.685211 0 0 0 75 54 37
-0.0373738 -0.000444091 -0.683873 0 0 0 72 49 33
-0.0373514 -0.000141867 -0.682438 0 0 0 71 45 30
-0.0373467 0.000561259 -0.681101 0 0 0 77 51 36
-0.037289 5.86384e-005 -0.679478 0 0 0 76 50 37
-0.0372224 -0.000647327 -0.677812 0 0 0 77 50 39
-0.0371116 -0.0023623 -0.675916 0 0 0 81 56 49
-0.0371069 -0.00166353 -0.674586 0 0 0 76 55 52
-0.0370935 -0.00116641 -0.673211 0 0 0 68 48 49
-0.0370888 -0.000467813 -0.671882 0 0 0 51 35 38
-0.0371107 0.000836771 -0.670689 0 0 0 19 8 14
-0.0371061 0.00153602 -0.669359 0 0 0 5 0 4
-0.0371279 0.00284223 -0.668164 0 0 0 1 1 3
-0.037141 0.00394696 -0.666922 0 0 0 2 0 1
-0.0372499 0.00725331 -0.666158 0 0 0 5 1 0
-0.0372453 0.00795554 -0.664823 0 0 0 7 2 0
-0.0372406 0.00865779 -0.663486 0 0 0 10 2 0
-0.0372359 0.00936002 -0.662151 0 0 0 15 4 0
-0.0372313 0.0100622 -0.660815 0 0 0 20 7 1
-0.0372266 0.0107645 -0.659478 0 0 0 26 9 2
-0.037222 0.0114667 -0.658143 0 0 0 32 12 3
-0.0371858 0.0114406 -0.656657 0 0 0 37 15 4
-0.0368974 0.00558119 -0.653986 0 0 0 39 12 3
-0.0367856 0.00379645 -0.652161 0 0 0 39 11 0
-0.0367684 0.00419827 -0.650783 0 0 0 39 11 0
-0.0366755 0.00284543 -0.649058 0 0 0 42 12 1
-0.0365953 0.00178174 -0.647396 0 0 0 41 13 1
0.00170402 0.808271 0.488275 0 0 0 121 82 77
0.00170402 0.808271 0.488275 0 0 0 119 79 77
0.00170402 0.808271 0.488275 0 0 0 118 78 76
0.00170402 0.808271 0.488275 0 0 0 114 76 73
0.00170402 0.808271 0.488275 0 0 0 119 81 78
0.00170402 0.808271 0.488275 0 0 0 117 82 78
-0.0371103 -0.0186394 -0.767922 0 0 0 97 62 58
-0.0371909 -0.0160091 -0.767216 0 0 0 79 46 39
-0.0371947 -0.015093 -0.765903 0 0 0 84 51 44
-0.0373862 -0.00997384 -0.766052 0 0 0 89 61 50
-0.0374326 -0.00809713 -0.765061 0 0 0 91 63 60
-0.0374278 -0.00736659 -0.763671 0 0 0 91 61 73
-0.0374229 -0.00663606 -0.762281 0 0 0 87 58 76
-0.0374181 -0.00590551 -0.760891 0 0 0 86 58 72
-0.0374132 -0.00517498 -0.759501 0 0 0 89 64 68
-0.0374084 -0.00444444 -0.758112 0 0 0 89 69 62
-0.037395 -0.00390623 -0.756658 0 0 0 88 68 61
-0.0373475 -0.00413803 -0.754949 0 0 0 87 67 66
-0.0373 -0.00437146 -0.753244 0 0 0 76 57 61
-0.0372696 -0.00422107 -0.751668 0 0 0 70 53 63
-0.037188 -0.00522949 -0.749718 0 0 0 68 52 62
-0.037115 -0.00604801 -0.747835 0 0 0 54 41 48
-0.0370761 -0.00609606 -0.746207 0 0 0 34 23 31
-0.0370287 -0.00633892 -0.74452 0 0 0 19 7 17
-0.0370239 -0.00561536 -0.743143 0 0 0 9 1 12
-0.0370191 -0.0048918 -0.741767 0 0 0 6 6 16
-0.0370142 -0.00416825 -0.74039 0 0 0 2 2 12
-0.0370094 -0.00344468 -0.739014 0 0 0 2 0 13
-0.0370046 -0.00272112 -0.737637 0 0 0 5 2 13
-0.0365741 -0.0117233 -0.733269 0 0 0 6 1 7
-0.0364492 -0.0121144 -0.728425 0 0 0 9 1 0
-0.0366969 -0.00561051 -0.728804 0 0 0 9 0 1
-0.0366922 -0.00489278 -0.727439 0 0 0 9 0 3
-0.0366874 -0.00417504 -0.726073 0 0 0 11 1 2
-0.036694 -0.00319631 -0.724785 0 0 0 14 3 1
-0.0366892 -0.00247834 -0.723419 0 0 0 19 6 0
-0.0366844 -0.00176037 -0.722053 0 0 0 22 7 2
-0.0366797 -0.0010424 -0.720687 0 0 0 26 7 9
-0.0366749 -0.000324428 -0.719321 0 0 0 25 9 10
-0.0366531 3.11723e-007 -0.717843 0 0 0 10 2 0
-0.0365804 -0.000856324 -0.716034 0 0 0 9 4 1
-0.0364821 -0.00230668 -0.714064 0 0 0 9 3 5
-0.0364434 -0.00238086 -0.712486 0 0 0 10 1 6
-0.0364047 -0.00245663 -0.71091 0 0 0 12 1 9
-0.0363914 -0.00194118 -0.7095 0 0 0 15 2 11
-0.0363782 -0.00142614 -0.70809 0 0 0 16 1 8
-0.0363735 -0.000713583 -0.706734 0 0 0 15 0 2
-0.0362923 -0.00178303 -0.7049 0 0 0 25 7 5
-0.0362536 -0.00186473 -0.703336 0 0 0 42 25 17
-0.036181 -0.00274139 -0.701564 0 0 0 55 37 23
-0.0361169 -0.00342222 -0.699851 0 0 0 58 40 20
-0.0360358 -0.00450284 -0.698038 0 0 0 62 44 20
-0.0359208 -0.00638221 -0.696024 0 0 0 68 48 21
-0.0359161 -0.00567837 -0.694685 0 0 0 71 52 22
-0.0358945 -0.00537313 -0.693244 0 0 0 76 56 32
-0.0358728 -0.00506847 -0.691805 0 0 0 72 50 37
-0.0358003 -0.00596181 -0.690066 0 0 0 74 51 45
-0.0357957 -0.00526008 -0.688731 0 0 0 74 51 43
-0.035791 -0.00455834 -0.687396 0 0 0 73 51 40
-0.0357778 -0.0040568 -0.686011 0 0 0 76 54 41
-0.0356969 -0.00515774 -0.684237 0 0 0 76 54 40
-0.0356922 -0.00445774 -0.682905 0 0 0 74 51 33
-0.0356707 -0.00415896 -0.681477 0 0 0 73 48 28
-0.035666 -0.00345931 -0.680146 0 0 0 77 52 32
-0.0356021 -0.00416637 -0.678482 0 0 0 78 53 33
-0.035589 -0.00366914 -0.677106 0 0 0 81 55 40
-0.0355335 -0.00417893 -0.675497 0 0 0 77 55 44
-0.0355289 -0.00348172 -0.67417 0 0 0 86 67 61
-0.0355666 -0.00177611 -0.673075 0 0 0 79 61 61
-0.0355619 -0.00107805 -0.671747 0 0 0 37 22 27
-0.0355573 -0.00037996 -0.670419 0 0 0 16 7 12
-0.0355527 0.000318088 -0.669091 0 0 0 4 2 5
-0.0355565 0.00121852 -0.667807 0 0 0 2 2 4
-0.0355688 0.0023218 -0.666568 0 0 0 2 2 2
-0.035653 0.00514902 -0.665703 0 0 0 2 0 1
-0.0356997 0.00708135 -0.664637 0 0 0 4 0 0
-0.035695 0.00778284 -0.663303 0 0 0 7 2 0
-0.0356904 0.00848433 -0.661968 0 0 0 13 3 1
-0.0356857 0.00918581 -0.660634 0 0 0 19 6 0
-0.0356811 0.00988731 -0.659299 0 0 0 23 6 0
-0.0356462 0.00986091 -0.657814 0 0 0 31 12 5
-0.0355933 0.00939644 -0.656241 0 0 0 37 14 6
-0.0354015 0.00557657 -0.653989 0 0 0 39 12 1
-0.0352942 0.00379185 -0.652164 0 0 0 38 10 0
-0.0352776 0.00419365 -0.650786 0 0 0 42 13 0
-0.0351885 0.00284084 -0.64906 0 0 0 47 15 2
-0.0351115 0.00177715 -0.647399 0 0 0 46 17 3
0.00170402 0.808271 0.488275 0 0 0 120 80 78
0.00170402 0.808271 0.488275 0 0 0 118 78 78
0.00170402 0.808271 0.488275 0 0 0 117 77 77
0.00170402 0.808271 0.488275 0 0 0 118 81 75
0.00170402 0.808271 0.488275 0 0 0 117 82 76
0.00170402 0.808271 0.488275 0 0 0 110 75 71
-0.0355552 -0.0186442 -0.767924 0 0 0 91 58 53
-0.035632 -0.0160139 -0.767219 0 0 0 81 48 39
-0.0356354 -0.0150978 -0.765906 0 0 0 85 55 45
-0.0357367 -0.0118889 -0.76539 0 0 0 89 60 52
-0.0357808 -0.0100141 -0.764402 0 0 0 91 61 61
-0.035776 -0.00928527 -0.763016 0 0 0 90 60 72
-0.0357712 -0.00855647 -0.761629 0 0 0 87 56 72
-0.0357663 -0.00782768 -0.760243 0 0 0 87 57 67
-0.0357615 -0.00709889 -0.758856 0 0 0 88 62 65
-0.0357485 -0.00656214 -0.757405 0 0 0 90 65 58
-0.035711 -0.00660248 -0.755763 0 0 0 88 66 55
-0.0356899 -0.00625933 -0.75425 0 0 0 80 59 54
-0.0356443 -0.00649467 -0.752548 0 0 0 76 56 57
-0.0355987 -0.00673193 -0.75085 0 0 0 80 61 65
-0.0355613 -0.00677796 -0.749218 0 0 0 86 69 77
-0.0355239 -0.00682532 -0.747588 0 0 0 80 65 72
-0.0354783 -0.00706729 -0.745899 0 0 0 62 49 58
-0.0354491 -0.00692411 -0.744337 0 0 0 46 32 45
-0.035428 -0.00658831 -0.742839 0 0 0 34 23 37
-0.0353988 -0.00644711 -0.741281 0 0 0 15 13 24
-0.035394 -0.00572495 -0.739907 0 0 0 7 9 21
-0.0353485 -0.00597366 -0.73823 0 0 0 8 5 22
-0.0353355 -0.0054467 -0.736798 0 0 0 8 4 21
-0.0350377 -0.011728 -0.733272 0 0 0 6 0 12
-0.0349516 -0.0129603 -0.731317 0 0 0 4 0 5
-0.0349991 -0.0109945 -0.730341 0 0 0 6 0 0
-0.0349944 -0.0102803 -0.728982 0 0 0 6 1 0
-0.0351509 -0.00569661 -0.728783 0 0 0 5 0 0
-0.0351461 -0.00497894 -0.727418 0 0 0 5 0 0
-0.0351414 -0.00426129 -0.726052 0 0 0 5 0 0
-0.0351366 -0.00354362 -0.724687 0 0 0 6 1 0
-0.0351318 -0.00282596 -0.723322 0 0 0 9 2 0
-0.0350194 -0.00470646 -0.721203 0 0 0 10 0 0
-0.0350038 -0.0042528 -0.719767 0 0 0 10 0 6
-0.034999 -0.00353768 -0.718406 0 0 0 8 0 6
-0.0349943 -0.00282255 -0.717046 0 0 0 2 0 1
-0.0349272 -0.00361605 -0.71526 0 0 0 2 4 3
-0.0348738 -0.00408412 -0.713571 0 0 0 6 4 7
-0.0348081 -0.00484984 -0.711803 0 0 0 9 4 8
-0.0348034 -0.00413841 -0.71045 0 0 0 12 3 8
-0.034754 -0.00451315 -0.708798 0 0 0 16 4 8
-0.0347412 -0.00400032 -0.707393 0 0 0 23 7 10
-0.0346106 -0.00635642 -0.705212 0 0 0 30 10 11
-0.0345694 -0.00653995 -0.703626 0 0 0 44 23 18
-0.0345404 -0.00642768 -0.702123 0 0 0 61 38 30
-0.034487 -0.00691155 -0.700464 0 0 0 73 49 37
-0.0344336 -0.00739748 -0.69881 0 0 0 77 54 38
-0.0343965 -0.00748825 -0.697262 0 0 0 79 56 38
-0.0343918 -0.00678476 -0.695924 0 0 0 78 56 35
-0.0343871 -0.00608128 -0.694586 0 0 0 73 51 30
-0.0343663 -0.00577626 -0.693146 0 0 0 71 48 34
-0.0342967 -0.00666822 -0.691404 0 0 0 77 53 51
-0.034211 -0.00796235 -0.689567 0 0 0 77 52 56
-0.0342064 -0.00726235 -0.688235 0 0 0 76 52 52
-0.0341936 -0.00676227 -0.686854 0 0 0 75 51 47
-0.0341484 -0.00706289 -0.685276 0 0 0 77 54 46
-0.0341114 -0.007165 -0.683751 0 0 0 77 55 42
-0.0341068 -0.00646676 -0.682423 0 0 0 76 53 35
-0.034094 -0.00596917 -0.681046 0 0 0 77 55 32
-0.0340732 -0.00567264 -0.679622 0 0 0 83 59 35
-0.0340281 -0.00597997 -0.678057 0 0 0 83 58 36
-0.0340073 -0.00568542 -0.676637 0 0 0 83 60 42
-0.0340026 -0.00498892 -0.675312 0 0 0 83 61 48
-0.033994 -0.00439318 -0.673963 0 0 0 94 75 69
-0.0339893 -0.00369679 -0.672639 0 0 0 78 64 63
-0.0339847 -0.00300037 -0.671314 0 0 0 29 18 22
-0.0339801 -0.00230395 -0.669989 0 0 0 10 3 10
-0.0339755 -0.00160754 -0.668664 0 0 0 3 3 5
-0.0339708 -0.000911136 -0.667339 0 0 0 1 2 4
-0.034192 0.00707671 -0.66464 0 0 0 2 1 0
-0.0341873 0.0077782 -0.663305 0 0 0 7 2 0
-0.0341827 0.00847967 -0.661971 0 0 0 13 3 1
-0.034178 0.00918115 -0.660636 0 0 0 16 5 1
-0.0341734 0.00988264 -0.659302 0 0 0 20 5 0
-0.0341399 0.00985625 -0.657816 0 0 0 29 10 3
-0.034089 0.0093918 -0.656244 0 0 0 35 12 4
-0.0339575 0.00688407 -0.654259 0 0 0 35 11 0
