ply
format ascii 1.0
element vertex 1027
property float x
property float y
property float z
property float nx
property float ny
property float nz
property uchar red
property uchar green
property uchar blue
end_header
0.0579744 0.0878953 -0.768564 0 0 0 75 66 85
0.0579462 0.0863011 -0.76855 0 0 0 105 88 104
0.0598319 0.0844847 -0.767768 0 0 0 120 96 110
0.0626746 0.0825666 -0.766602 0 0 0 125 94 109
0.0645606 0.0807671 -0.76582 0 0 0 121 87 104
0.0664467 0.078975 -0.765037 0 0 0 122 85 102
0.0683329 0.0771905 -0.764255 0 0 0 131 95 105
0.0702193 0.0754135 -0.763474 0 0 0 124 91 98
0.0701914 0.0738437 -0.763459 0 0 0 124 92 103
0.072078 0.0720779 -0.762678 0 0 0 127 95 106
0.0720502 0.0705118 -0.762664 0 0 0 123 93 103
0.0758516 0.0685689 -0.761114 0 0 0 116 87 89
0.0796531 0.0666409 -0.759565 0 0 0 100 74 59
0.0815403 0.0649089 -0.758784 0 0 0 80 55 35
0.0834276 0.0631844 -0.758002 0 0 0 48 20 8
0.0834002 0.0616408 -0.757988 0 0 0 44 16 12
0.0852877 0.0599276 -0.757207 0 0 0 44 14 22
0.0852604 0.0583878 -0.757193 0 0 0 38 11 20
0.085233 0.0568479 -0.757179 0 0 0 28 7 6
0.0852057 0.0553081 -0.757165 0 0 0 26 6 5
0.0870935 0.0536136 -0.756384 0 0 0 25 6 10
0.0870663 0.0520775 -0.75637 0 0 0 22 2 4
0.0908696 0.0502471 -0.754822 0 0 0 21 0 0
0.0937155 0.0485034 -0.753657 0 0 0 39 9 1
0.0975193 0.0467012 -0.752109 0 0 0 86 46 46
0.0974924 0.0451857 -0.752096 0 0 0 137 95 99
0.0974655 0.0436703 -0.752082 0 0 0 151 111 120
0.0974386 0.0421548 -0.752068 0 0 0 146 108 123
0.0993274 0.0405147 -0.751288 0 0 0 156 117 135
0.0993006 0.039003 -0.751274 0 0 0 152 110 132
0.0992738 0.0374913 -0.75126 0 0 0 140 94 120
0.101163 0.0358662 -0.75048 0 0 0 157 113 130
0.101136 0.0343583 -0.750466 0 0 0 208 170 167
0.103025 0.0327444 -0.749686 0 0 0 204 173 170
0.102999 0.0312402 -0.749672 0 0 0 192 164 178
0.101056 0.0298344 -0.750426 0 0 0 192 164 189
0.101029 0.0283265 -0.750412 0 0 0 194 161 192
0.0952534 0.0270912 -0.752699 0 0 0 197 164 195
0.0904356 0.0257898 -0.754602 0 0 0 193 165 187
0.0913667 0.0242196 -0.754205 0 0 0 199 166 187
0.0903814 0.0227327 -0.754574 0 0 0 213 163 190
0.0903542 0.0212041 -0.75456 0 0 0 222 166 193
0.0864939 0.0198198 -0.75608 0 0 0 224 175 194
0.0864666 0.0182837 -0.756066 0 0 0 226 182 197
0.0845227 0.0168123 -0.756819 0 0 0 228 185 202
0.0825785 0.0153333 -0.757571 0 0 0 228 187 203
0.0806343 0.0138469 -0.758324 0 0 0 225 182 202
0.0806068 0.0122995 -0.75831 0 0 0 221 179 201
0.0786623 0.0108018 -0.759062 0 0 0 217 178 197
0.0767177 0.00929662 -0.759815 0 0 0 223 181 201
0.0766901 0.00774179 -0.759801 0 0 0 224 175 196
0.0747454 0.00622533 -0.760553 0 0 0 225 174 191
0.0728004 0.00470136 -0.761305 0 0 0 225 180 187
0.0708553 0.0031699 -0.762057 0 0 0 212 167 174
0.0708276 0.00160381 -0.762043 0 0 0 201 157 174
0.0688823 6.10892e-005 -0.762795 0 0 0 170 126 143
0.0688544 -0.00150875 -0.762781 0 0 0 151 110 118
0.0649913 -0.00304685 -0.764299 0 0 0 149 108 114
0.0630457 -0.00461208 -0.765051 0 0 0 152 111 117
0.0610998 -0.00618481 -0.765803 0 0 0 150 109 115
0.0610717 -0.00776965 -0.765788 0 0 0 146 103 110
0.0610436 -0.0093545 -0.765774 0 0 0 153 111 115
0.0445982 -0.0174308 -0.772211 0 0 0 169 133 121
0.0445695 -0.0190475 -0.772197 0 0 0 174 137 131
0.0445409 -0.0206643 -0.772182 0 0 0 171 135 139
0.0416345 -0.0223247 -0.773316 0 0 0 169 132 139
0.0444835 -0.0238977 -0.772153 0 0 0 166 127 128
0.0444548 -0.0255144 -0.772139 0 0 0 160 122 119
0.0463447 -0.0270908 -0.771359 0 0 0 166 129 123
0.0463161 -0.0287038 -0.771344 0 0 0 169 135 107
-0.871347 0.00972024 0.442172 0 0 0 162 135 66
-0.871347 0.00972024 0.442172 0 0 0 156 132 46
-0.871347 0.00972024 0.442172 0 0 0 154 128 51
-0.871347 0.00972024 0.442172 0 0 0 163 136 67
-0.871347 0.00972024 0.442172 0 0 0 172 146 89
-0.871347 0.00972024 0.442172 0 0 0 167 138 94
-0.871347 0.00972024 0.442172 0 0 0 148 117 89
-0.871347 0.00972024 0.442172 0 0 0 128 95 78
-0.871347 0.00972024 0.442172 0 0 0 122 90 75
-0.871347 0.00972024 0.442172 0 0 0 124 91 82
-0.871347 0.00972024 0.442172 0 0 0 127 93 92
-0.871347 0.00972024 0.442172 0 0 0 129 95 96
-0.871347 0.00972024 0.442172 0 0 0 131 96 92
-0.871347 0.00972024 0.442172 0 0 0 128 94 84
-0.871347 0.00972024 0.442172 0 0 0 122 89 70
-0.871347 0.00972024 0.442172 0 0 0 121 89 66
-0.871347 0.00972024 0.442172 0 0 0 125 93 70
-0.871347 0.00972024 0.442172 0 0 0 126 93 74
-0.871347 0.00972024 0.442172 0 0 0 127 90 81
-0.871347 0.00972024 0.442172 0 0 0 129 92 86
-0.871347 0.00972024 0.442172 0 0 0 132 92 90
-0.871347 0.00972024 0.442172 0 0 0 132 93 88
-0.871347 0.00972024 0.442172 0 0 0 134 96 85
-0.871347 0.00972024 0.442172 0 0 0 131 95 79
-0.871347 0.00972024 0.442172 0 0 0 124 88 72
0.0552306 0.0945453 -0.7681 0 0 0 33 39 55
0.0552023 0.0929473 -0.768086 0 0 0 34 39 59
0.0551739 0.0913493 -0.768071 0 0 0 35 36 57
0.0570615 0.0895178 -0.767292 0 0 0 45 42 61
0.0570332 0.0879236 -0.767278 0 0 0 89 78 94
0.0589211 0.0861034 -0.766498 0 0 0 109 93 104
0.061767 0.0841796 -0.765337 0 0 0 115 91 104
0.0617389 0.0825947 -0.765322 0 0 0 126 98 112
0.0636271 0.0807951 -0.764543 0 0 0 124 91 108
0.0674318 0.078792 -0.763 0 0 0 124 90 104
0.0674039 0.0772184 -0.762985 0 0 0 128 96 99
0.0692925 0.0754413 -0.762206 0 0 0 118 86 87
0.0692646 0.0738715 -0.762192 0 0 0 114 83 91
0.0711534 0.0721057 -0.761414 0 0 0 103 71 82
0.0711256 0.0705396 -0.761399 0 0 0 78 48 58
0.0749314 0.0685965 -0.759856 0 0 0 60 34 37
0.0787373 0.0666685 -0.758313 0 0 0 52 25 16
0.0806267 0.0649364 -0.757535 0 0 0 41 14 5
0.0825162 0.0632118 -0.756756 0 0 0 39 11 8
0.0824888 0.0616682 -0.756742 0 0 0 40 11 16
0.0843786 0.0599549 -0.755964 0 0 0 41 14 23
0.0843512 0.0584151 -0.75595 0 0 0 39 14 20
0.0862411 0.056713 -0.755172 0 0 0 32 13 7
0.0862139 0.0551769 -0.755158 0 0 0 34 17 10
0.0861866 0.0536409 -0.755144 0 0 0 32 18 17
0.0899942 0.0518028 -0.753602 0 0 0 27 11 11
0.0909258 0.0502006 -0.753206 0 0 0 19 0 0
0.0947339 0.048387 -0.751664 0 0 0 35 6 0
0.0966245 0.046728 -0.750886 0 0 0 75 37 36
0.0985154 0.0450766 -0.750108 0 0 0 144 104 105
0.0984885 0.0435649 -0.750095 0 0 0 145 106 107
0.0984617 0.0420532 -0.750081 0 0 0 151 115 117
0.0984349 0.0405415 -0.750067 0 0 0 148 111 119
0.100326 0.0389089 -0.74929 0 0 0 152 111 129
0.100299 0.0374009 -0.749276 0 0 0 127 78 108
0.100272 0.035893 -0.749263 0 0 0 151 101 128
0.102164 0.0342753 -0.748485 0 0 0 206 163 172
0.102137 0.0327711 -0.748472 0 0 0 211 171 179
0.102111 0.0312669 -0.748458 0 0 0 200 165 187
0.102084 0.0297627 -0.748445 0 0 0 198 161 194
0.100139 0.0283532 -0.749195 0 0 0 200 159 193
0.0943565 0.0271182 -0.751472 0 0 0 204 163 195
0.0904924 0.0257734 -0.752986 0 0 0 199 165 189
0.0904653 0.0242467 -0.752972 0 0 0 202 164 187
0.0904382 0.02272 -0.752959 0 0 0 215 161 193
0.0894518 0.0212312 -0.753327 0 0 0 223 166 198
0.0875058 0.0197749 -0.754076 0 0 0 222 173 195
0.0855597 0.018311 -0.754826 0 0 0 221 176 197
0.0855325 0.0167749 -0.754812 0 0 0 225 181 204
0.0835862 0.0152998 -0.755562 0 0 0 231 189 213
0.0797207 0.0138743 -0.757075 0 0 0 228 188 212
0.0796933 0.012327 -0.757061 0 0 0 218 178 202
0.0777465 0.0108294 -0.75781 0 0 0 213 175 200
0.077719 0.00927827 -0.757796 0 0 0 220 177 204
0.0776915 0.00772718 -0.757782 0 0 0 218 167 198
0.0757446 0.00621454 -0.758532 0 0 0 221 168 194
0.071878 0.00472909 -0.760044 0 0 0 225 179 190
0.0699307 0.00319769 -0.760793 0 0 0 210 167 177
0.0699029 0.0016316 -0.760779 0 0 0 197 149 171
0.0679554 8.89441e-005 -0.761528 0 0 0 166 121 144
0.0679276 -0.0014809 -0.761514 0 0 0 152 109 128
0.0659799 -0.0030348 -0.762263 0 0 0 152 110 122
0.0621122 -0.00458402 -0.763775 0 0 0 150 109 115
0.0601641 -0.00615669 -0.764523 0 0 0 144 103 107
0.060136 -0.00774153 -0.764509 0 0 0 139 96 105
0.0601079 -0.00932638 -0.764495 0 0 0 146 103 112
0.0436437 -0.0174021 -0.770907 0 0 0 168 126 114
0.043615 -0.0190188 -0.770892 0 0 0 174 133 127
0.0435864 -0.0206356 -0.770877 0 0 0 174 134 134
0.0435577 -0.0222523 -0.770863 0 0 0 173 134 137
0.043529 -0.023869 -0.770848 0 0 0 168 129 132
0.0435003 -0.0254858 -0.770834 0 0 0 160 121 124
0.0453924 -0.0270622 -0.770057 0 0 0 160 121 126
0.0453638 -0.0286751 -0.770042 0 0 0 161 126 107
-0.871347 0.00972024 0.442172 0 0 0 160 132 67
-0.871347 0.00972024 0.442172 0 0 0 151 127 41
-0.871347 0.00972024 0.442172 0 0 0 148 121 40
-0.871347 0.00972024 0.442172 0 0 0 163 134 64
0.0260085 -0.0373684 -0.777593 0 0 0 170 141 83
0.0259792 -0.0390189 -0.777578 0 0 0 168 136 98
-0.871347 0.00972024 0.442172 0 0 0 150 114 102
-0.871347 0.00972024 0.442172 0 0 0 129 90 93
-0.871347 0.00972024 0.442172 0 0 0 121 85 87
-0.871347 0.00972024 0.442172 0 0 0 124 87 94
-0.871347 0.00972024 0.442172 0 0 0 127 89 100
-0.871347 0.00972024 0.442172 0 0 0 130 92 103
-0.871347 0.00972024 0.442172 0 0 0 128 92 96
-0.871347 0.00972024 0.442172 0 0 0 128 93 87
-0.871347 0.00972024 0.442172 0 0 0 128 92 78
-0.871347 0.00972024 0.442172 0 0 0 127 92 72
-0.871347 0.00972024 0.442172 0 0 0 128 93 73
-0.871347 0.00972024 0.442172 0 0 0 126 90 74
-0.871347 0.00972024 0.442172 0 0 0 124 87 81
-0.871347 0.00972024 0.442172 0 0 0 127 88 89
-0.871347 0.00972024 0.442172 0 0 0 129 90 93
-0.871347 0.00972024 0.442172 0 0 0 130 91 92
-0.871347 0.00972024 0.442172 0 0 0 131 94 86
-0.871347 0.00972024 0.442172 0 0 0 124 90 80
-0.871347 0.00972024 0.442172 0 0 0 119 85 73
0.0562051 0.0943288 -0.766048 0 0 0 34 34 58
0.0561769 0.0927346 -0.766034 0 0 0 35 35 61
0.0561486 0.0911404 -0.76602 0 0 0 41 37 62
0.0561203 0.0895461 -0.766005 0 0 0 60 52 75
0.0580103 0.0877221 -0.765229 0 0 0 98 85 103
0.0608595 0.0857925 -0.764072 0 0 0 113 95 111
0.0608314 0.0842077 -0.764057 0 0 0 113 89 103
0.0608032 0.0826228 -0.764043 0 0 0 120 92 106
0.0646122 0.0806084 -0.762505 0 0 0 125 93 108
0.0665028 0.0788199 -0.761729 0 0 0 126 93 102
0.0664749 0.0772464 -0.761715 0 0 0 110 79 77
0.0683656 0.0754692 -0.760939 0 0 0 95 66 62
0.0702566 0.0736996 -0.760164 0 0 0 91 60 65
0.0721476 0.0719374 -0.759388 0 0 0 80 50 58
0.0740388 0.0701828 -0.758612 0 0 0 53 26 31
0.0797681 0.0680585 -0.756314 0 0 0 40 14 17
0.0816597 0.0663264 -0.755538 0 0 0 42 14 11
0.0816323 0.0647828 -0.755524 0 0 0 37 9 8
0.0816049 0.0632392 -0.75551 0 0 0 37 8 13
0.0834968 0.0615221 -0.754735 0 0 0 37 10 17
0.0834695 0.0599822 -0.754721 0 0 0 38 13 19
0.0853615 0.0582764 -0.753946 0 0 0 32 10 12
0.0853342 0.0567403 -0.753932 0 0 0 28 11 4
0.085307 0.0552042 -0.753918 0 0 0 34 20 11
0.0871993 0.0535133 -0.753143 0 0 0 34 23 19
0.0900516 0.0517544 -0.751987 0 0 0 28 14 13
0.0900245 0.0502277 -0.751974 0 0 0 19 0 0
0.0938369 0.0484139 -0.750438 0 0 0 38 9 5
0.0976497 0.0466151 -0.748902 0 0 0 79 44 40
0.0976229 0.0451034 -0.748888 0 0 0 147 110 104
0.097596 0.0435917 -0.748875 0 0 0 143 108 102
0.0975692 0.0420801 -0.748861 0 0 0 152 119 114
0.0994625 0.0404436 -0.748086 0 0 0 145 111 112
0.0994357 0.0389356 -0.748073 0 0 0 147 109 120
0.099409 0.0374277 -0.748059 0 0 0 118 70 96
0.0993822 0.0359197 -0.748046 0 0 0 145 95 122
0.101276 0.034302 -0.747271 0 0 0 202 156 169
0.101249 0.0327978 -0.747258 0 0 0 211 167 180
0.101222 0.0312936 -0.747244 0 0 0 204 164 190
0.101196 0.0297894 -0.747231 0 0 0 201 160 194
0.0992484 0.02838 -0.747978 0 0 0 204 157 191
0.0992217 0.026872 -0.747964 0 0 0 205 160 189
0.089591 0.0258005 -0.751754 0 0 0 202 164 185
0.089564 0.0242737 -0.75174 0 0 0 204 165 184
0.0885764 0.0227869 -0.752107 0 0 0 218 163 192
0.0885493 0.0212584 -0.752093 0 0 0 225 166 194
0.0866012 0.019802 -0.75284 0 0 0 223 171 193
0.086574 0.0182697 -0.752826 0 0 0 222 175 195
0.0846256 0.0168021 -0.753572 0 0 0 226 181 204
0.0845983 0.0152661 -0.753559 0 0 0 229 187 209
0.0788072 0.0139018 -0.755826 0 0 0 226 188 209
0.0787797 0.0123544 -0.755812 0 0 0 213 178 198
0.0768308 0.0108569 -0.756558 0 0 0 209 174 196
0.0768032 0.00930579 -0.756544 0 0 0 215 172 199
0.0767757 0.0077547 -0.75653 0 0 0 216 162 198
0.0767482 0.00620362 -0.756516 0 0 0 222 167 196
0.074799 0.00468729 -0.757263 0 0 0 224 178 188
0.0728497 0.00316346 -0.758009 0 0 0 205 163 167
0.0689783 0.00165938 -0.759515 0 0 0 176 131 151
0.0689505 9.32932e-005 -0.759501 0 0 0 154 108 134
0.0670007 -0.00145304 -0.760247 0 0 0 148 105 125
0.0650508 -0.00300688 -0.760993 0 0 0 150 109 123
0.0650229 -0.00458047 -0.760978 0 0 0 146 107 110
0.0426605 -0.0189901 -0.769587 0 0 0 169 126 119
0.0445546 -0.0205816 -0.768813 0 0 0 172 131 127
0.044526 -0.0221946 -0.768798 0 0 0 176 136 137
0.0444973 -0.0238076 -0.768784 0 0 0 175 135 146
0.0425458 -0.0254571 -0.769529 0 0 0 171 130 148
0.0444401 -0.0270335 -0.768755 0 0 0 163 122 140
0.0444115 -0.0286465 -0.76874 0 0 0 156 119 111
-0.871347 0.00972024 0.442172 0 0 0 154 125 67
-0.871347 0.00972024 0.442172 0 0 0 145 120 38
-0.871347 0.00972024 0.442172 0 0 0 139 112 35
-0.871347 0.00972024 0.442172 0 0 0 156 127 59
0.025034 -0.0373391 -0.776261 0 0 0 167 136 81
0.0250047 -0.0389896 -0.776246 0 0 0 166 133 98
0.0249754 -0.0406401 -0.776231 0 0 0 150 113 105
-0.871347 0.00972024 0.442172 0 0 0 127 88 93
-0.871347 0.00972024 0.442172 0 0 0 119 80 85
-0.871347 0.00972024 0.442172 0 0 0 119 82 90
-0.871347 0.00972024 0.442172 0 0 0 121 82 101
-0.871347 0.00972024 0.442172 0 0 0 124 85 104
-0.871347 0.00972024 0.442172 0 0 0 128 91 99
-0.871347 0.00972024 0.442172 0 0 0 128 93 89
-0.871347 0.00972024 0.442172 0 0 0 127 91 77
-0.871347 0.00972024 0.442172 0 0 0 126 91 71
-0.871347 0.00972024 0.442172 0 0 0 125 90 68
-0.871347 0.00972024 0.442172 0 0 0 122 86 70
-0.871347 0.00972024 0.442172 0 0 0 120 83 77
-0.871347 0.00972024 0.442172 0 0 0 122 83 86
-0.871347 0.00972024 0.442172 0 0 0 128 89 94
-0.871347 0.00972024 0.442172 0 0 0 128 92 94
-0.871347 0.00972024 0.442172 0 0 0 126 91 87
-0.871347 0.00972024 0.442172 0 0 0 120 87 78
-0.871347 0.00972024 0.442172 0 0 0 118 86 75
0.0552639 0.0943571 -0.764761 0 0 0 34 26 63
0.0571559 0.0925217 -0.763988 0 0 0 45 37 76
0.0571277 0.0909313 -0.763974 0 0 0 67 55 93
0.0570995 0.0893408 -0.763959 0 0 0 92 76 112
0.0599519 0.0874055 -0.762807 0 0 0 112 91 122
0.0599238 0.0858206 -0.762793 0 0 0 123 99 125
0.0618163 0.0840134 -0.762019 0 0 0 120 92 114
0.0637089 0.0822137 -0.761246 0 0 0 114 83 101
0.0656016 0.0804215 -0.760473 0 0 0 115 83 96
0.0674945 0.0786367 -0.759701 0 0 0 110 79 85
0.0674666 0.0770669 -0.759686 0 0 0 84 54 52
0.0674388 0.0754971 -0.759672 0 0 0 58 29 25
0.069332 0.0737273 -0.758899 0 0 0 44 14 16
0.0712252 0.0719651 -0.758127 0 0 0 42 13 17
0.0750397 0.070018 -0.756596 0 0 0 37 11 12
0.0788546 0.068086 -0.755065 0 0 0 41 15 16
0.0807483 0.0663538 -0.754292 0 0 0 47 21 24
0.0807209 0.0648102 -0.754278 0 0 0 43 16 21
0.082615 0.0630892 -0.753506 0 0 0 37 10 19
0.0825877 0.0615494 -0.753492 0 0 0 35 8 15
0.0844818 0.0598397 -0.75272 0 0 0 31 6 9
0.0863762 0.0581375 -0.751948 0 0 0 25 6 2
0.086349 0.0566052 -0.751934 0 0 0 29 14 7
0.0863218 0.0550728 -0.75192 0 0 0 44 31 25
0.0882164 0.0533856 -0.751148 0 0 0 42 33 28
0.0891502 0.0517815 -0.750755 0 0 0 27 16 14
0.0910451 0.0501074 -0.749983 0 0 0 19 0 0
0.09294 0.0484409 -0.749211 0 0 0 40 10 8
0.0967572 0.046642 -0.747682 0 0 0 95 61 51
0.0967304 0.0451303 -0.747668 0 0 0 145 109 95
0.0967035 0.0436186 -0.747654 0 0 0 147 113 101
0.0985989 0.0419783 -0.746883 0 0 0 151 118 109
0.0985722 0.0404703 -0.746869 0 0 0 148 117 112
0.0985454 0.0389624 -0.746856 0 0 0 143 108 112
0.0985187 0.0374544 -0.746842 0 0 0 130 86 103
0.100414 0.0358329 -0.746071 0 0 0 154 107 127
0.100388 0.0343287 -0.746057 0 0 0 201 155 166
0.100361 0.0328245 -0.746044 0 0 0 207 165 177
0.100334 0.0313203 -0.74603 0 0 0 203 163 189
0.100308 0.0298161 -0.746016 0 0 0 198 157 187
0.100281 0.0283119 -0.746003 0 0 0 204 158 187
0.0983314 0.0268988 -0.746747 0 0 0 205 160 183
0.0886897 0.0258275 -0.750521 0 0 0 202 164 177
0.0886626 0.0243008 -0.750508 0 0 0 210 168 178
0.0886355 0.0227741 -0.750494 0 0 0 219 166 182
0.0886084 0.0212474 -0.75048 0 0 0 222 165 182
0.0876197 0.0197569 -0.750845 0 0 0 221 171 183
0.0875926 0.0182283 -0.750831 0 0 0 224 178 189
0.0856421 0.0167646 -0.751575 0 0 0 226 182 199
0.0836914 0.0152933 -0.752319 0 0 0 224 183 199
0.0798171 0.0138719 -0.75382 0 0 0 223 190 199
0.0778662 0.0123819 -0.754563 0 0 0 213 182 190
0.0778387 0.0108346 -0.754549 0 0 0 208 176 187
0.0758875 0.00933331 -0.755292 0 0 0 213 174 193
0.07586 0.00778223 -0.755278 0 0 0 217 166 197
0.0758324 0.00623114 -0.755264 0 0 0 223 170 196
0.073881 0.00471488 -0.756008 0 0 0 213 172 170
0.0719295 0.00319111 -0.756751 0 0 0 183 144 139
0.0738258 0.0016052 -0.75598 0 0 0 156 114 124
0.0680259 0.000121082 -0.758237 0 0 0 130 89 107
0.0660739 -0.00142519 -0.75898 0 0 0 121 82 100
0.0641218 -0.00297896 -0.759722 0 0 0 123 85 96
0.0640939 -0.00455255 -0.759708 0 0 0 120 84 84
0.0494625 -0.0156722 -0.765284 0 0 0 146 100 77
0.0475092 -0.0172917 -0.766027 0 0 0 155 109 96
0.0474807 -0.0188971 -0.766012 0 0 0 163 119 110
0.0455273 -0.0205278 -0.766754 0 0 0 170 130 120
0.0435737 -0.022166 -0.767496 0 0 0 179 138 142
0.043545 -0.023779 -0.767482 0 0 0 179 136 164
0.0435164 -0.0253919 -0.767467 0 0 0 181 137 173
0.0434878 -0.0270049 -0.767453 0 0 0 172 128 161
0.0434592 -0.0286179 -0.767438 0 0 0 153 114 117
-0.871347 0.00972024 0.442172 0 0 0 147 115 64
-0.871347 0.00972024 0.442172 0 0 0 137 109 35
-0.871347 0.00972024 0.442172 0 0 0 129 98 31
-0.871347 0.00972024 0.442172 0 0 0 142 110 51
0.0259852 -0.0372471 -0.774172 0 0 0 156 123 72
0.025956 -0.0388939 -0.774157 0 0 0 161 125 89
0.024001 -0.0406108 -0.774899 0 0 0 149 110 95
0.0239717 -0.0422613 -0.774884 0 0 0 128 89 84
-0.871347 0.00972024 0.442172 0 0 0 121 82 75
-0.871347 0.00972024 0.442172 0 0 0 124 85 88
-0.871347 0.00972024 0.442172 0 0 0 129 87 111
-0.871347 0.00972024 0.442172 0 0 0 131 88 115
-0.871347 0.00972024 0.442172 0 0 0 128 90 101
-0.871347 0.00972024 0.442172 0 0 0 125 90 86
-0.871347 0.00972024 0.442172 0 0 0 122 87 68
-0.871347 0.00972024 0.442172 0 0 0 121 85 61
-0.871347 0.00972024 0.442172 0 0 0 123 87 61
-0.871347 0.00972024 0.442172 0 0 0 121 84 65
-0.871347 0.00972024 0.442172 0 0 0 119 80 75
-0.871347 0.00972024 0.442172 0 0 0 119 80 83
-0.871347 0.00972024 0.442172 0 0 0 129 89 97
-0.871347 0.00972024 0.442172 0 0 0 127 91 95
-0.871347 0.00972024 0.442172 0 0 0 123 90 85
-0.871347 0.00972024 0.442172 0 0 0 118 88 78
-0.871347 0.00972024 0.442172 0 0 0 118 88 77
0.0591287 0.093773 -0.761585 0 0 0 50 37 65
0.0591006 0.0921881 -0.76157 0 0 0 75 62 92
0.0590725 0.0906033 -0.761556 0 0 0 95 78 110
0.0590443 0.0890185 -0.761542 0 0 0 115 94 125
0.0590162 0.0874336 -0.761528 0 0 0 119 94 124
0.0609109 0.0856226 -0.760757 0 0 0 126 97 125
0.0608828 0.0840415 -0.760743 0 0 0 113 84 104
0.0627776 0.0822417 -0.759973 0 0 0 91 61 73
0.0627496 0.0806643 -0.759959 0 0 0 85 54 59
0.0646447 0.0788758 -0.759189 0 0 0 74 44 44
0.0665398 0.0770948 -0.758419 0 0 0 55 25 23
0.0684351 0.0753212 -0.757649 0 0 0 41 13 10
0.0684073 0.0737551 -0.757635 0 0 0 38 10 9
0.0722261 0.0717967 -0.75611 0 0 0 40 14 13
0.0798918 0.0694683 -0.753074 0 0 0 43 18 13
0.0798644 0.0679247 -0.75306 0 0 0 44 19 15
0.079837 0.0663812 -0.753046 0 0 0 43 16 21
0.0817332 0.0646564 -0.752277 0 0 0 37 10 19
0.0817059 0.0631165 -0.752263 0 0 0 30 3 12
0.0816785 0.0615767 -0.752249 0 0 0 26 1 4
0.0835749 0.0598669 -0.75148 0 0 0 22 1 0
0.0854715 0.0581647 -0.750711 0 0 0 23 6 0
0.0854443 0.0566324 -0.750697 0 0 0 39 25 22
0.0854171 0.0551 -0.750683 0 0 0 59 48 46
0.0873139 0.0534128 -0.749914 0 0 0 50 42 40
0.0882488 0.0518086 -0.749523 0 0 0 24 12 12
0.0901459 0.0501345 -0.748754 0 0 0 16 0 0
0.0920431 0.0484678 -0.747985 0 0 0 39 8 6
0.0958647 0.0466688 -0.746461 0 0 0 107 71 55
0.0958378 0.0451571 -0.746448 0 0 0 142 107 87
0.0977354 0.043513 -0.745679 0 0 0 150 116 104
0.0977086 0.042005 -0.745666 0 0 0 147 117 107
0.0976819 0.0404971 -0.745652 0 0 0 150 121 113
0.0995798 0.038868 -0.744884 0 0 0 138 107 102
0.0995531 0.0373638 -0.74487 0 0 0 132 91 95
0.0995264 0.0358596 -0.744856 0 0 0 155 113 117
0.0994997 0.0343554 -0.744843 0 0 0 197 155 157
0.101398 0.032745 -0.744075 0 0 0 207 168 173
0.101371 0.0312446 -0.744061 0 0 0 205 168 185
0.101345 0.0297441 -0.744048 0 0 0 200 161 182
0.101318 0.0282437 -0.744034 0 0 0 205 160 181
0.0993663 0.0268344 -0.744775 0 0 0 205 161 178
0.0897136 0.0257672 -0.748535 0 0 0 203 163 171
0.0896865 0.0242443 -0.748521 0 0 0 211 168 175
0.0896595 0.0227213 -0.748507 0 0 0 220 166 179
0.0896325 0.0211984 -0.748493 0 0 0 219 163 176
0.0876799 0.0197478 -0.749234 0 0 0 218 168 177
0.0876529 0.0182211 -0.74922 0 0 0 223 177 187
0.086663 0.0167269 -0.749584 0 0 0 225 181 198
0.0847102 0.0152594 -0.750324 0 0 0 218 180 195
0.0789058 0.0138993 -0.752574 0 0 0 223 192 198
0.0788784 0.0123557 -0.75256 0 0 0 217 188 192
0.0769252 0.010862 -0.7533 0 0 0 210 180 188
0.0749717 0.00936083 -0.75404 0 0 0 213 176 193
0.0749442 0.00780975 -0.754026 0 0 0 217 166 199
0.0749167 0.00625866 -0.754012 0 0 0 212 159 185
0.0748892 0.00470757 -0.753998 0 0 0 185 146 141
0.0729355 0.00318763 -0.754739 0 0 0 149 113 99
0.0729079 0.00163279 -0.754725 0 0 0 127 91 91
0.0728803 7.79545e-005 -0.754711 0 0 0 99 62 69
0.0728527 -0.00147688 -0.754697 0 0 0 90 55 62
0.0505006 -0.012434 -0.763267 0 0 0 111 66 47
0.0485453 -0.0140421 -0.764006 0 0 0 120 74 51
0.0485169 -0.0156438 -0.763992 0 0 0 130 82 62
0.0465614 -0.0172632 -0.764731 0 0 0 143 95 81
0.0465329 -0.0188687 -0.764716 0 0 0 155 111 98
0.0445772 -0.0204993 -0.765455 0 0 0 169 127 113
0.0426213 -0.0221374 -0.766194 0 0 0 177 135 136
0.0425927 -0.0237503 -0.76618 0 0 0 178 134 161
0.0425641 -0.0253633 -0.766165 0 0 0 184 139 178
0.040608 -0.0270164 -0.766904 0 0 0 178 134 170
0.0405794 -0.0286332 -0.76689 0 0 0 157 117 125
0.0376593 -0.0303213 -0.768005 0 0 0 144 112 65
0.0337751 -0.0320465 -0.769497 0 0 0 132 103 33
0.0337462 -0.0336763 -0.769483 0 0 0 121 90 26
-0.871347 0.00972024 0.442172 0 0 0 128 96 39
0.0279048 -0.037124 -0.771713 0 0 0 153 120 67
0.0249837 -0.0388646 -0.772828 0 0 0 161 126 86
0.0230265 -0.0405815 -0.773566 0 0 0 151 113 90
0.0229973 -0.042232 -0.773552 0 0 0 129 90 73
-0.871347 0.00972024 0.442172 0 0 0 118 81 62
-0.871347 0.00972024 0.442172 0 0 0 120 82 73
-0.871347 0.00972024 0.442172 0 0 0 122 79 96
-0.871347 0.00972024 0.442172 0 0 0 122 80 100
-0.871347 0.00972024 0.442172 0 0 0 127 87 95
-0.871347 0.00972024 0.442172 0 0 0 122 85 77
-0.871347 0.00972024 0.442172 0 0 0 117 81 59
-0.871347 0.00972024 0.442172 0 0 0 116 81 51
-0.871347 0.00972024 0.442172 0 0 0 120 83 54
-0.871347 0.00972024 0.442172 0 0 0 122 84 61
-0.871347 0.00972024 0.442172 0 0 0 120 82 73
-0.871347 0.00972024 0.442172 0 0 0 121 82 83
-0.871347 0.00972024 0.442172 0 0 0 128 92 96
-0.871347 0.00972024 0.442172 0 0 0 127 93 94
-0.871347 0.00972024 0.442172 0 0 0 121 91 83
-0.871347 0.00972024 0.442172 0 0 0 118 89 75
-0.871347 0.00972024 0.442172 0 0 0 118 89 73
0.058193 0.0938011 -0.760305 0 0 0 81 69 71
0.0581649 0.0922163 -0.760291 0 0 0 104 89 92
0.0581368 0.0906314 -0.760277 0 0 0 110 90 99
0.0600335 0.0888128 -0.75951 0 0 0 113 91 104
0.0600054 0.0872317 -0.759495 0 0 0 120 93 112
0.0599774 0.0856506 -0.759481 0 0 0 113 84 102
0.0618743 0.083847 -0.758714 0 0 0 83 53 63
0.0618463 0.0822697 -0.7587 0 0 0 54 24 24
0.0637436 0.0804773 -0.757933 0 0 0 45 15 4
0.0637156 0.0789037 -0.757919 0 0 0 40 12 0
0.065613 0.0771226 -0.757152 0 0 0 40 10 10
0.0675105 0.075349 -0.756385 0 0 0 41 12 16
0.0713336 0.0733829 -0.754866 0 0 0 42 14 13
0.0732314 0.0716281 -0.7541 0 0 0 40 15 10
0.0789804 0.0694957 -0.751828 0 0 0 39 15 5
0.0789531 0.0679521 -0.751814 0 0 0 36 13 7
0.0808514 0.0662235 -0.751048 0 0 0 37 12 18
0.0808241 0.0646837 -0.751034 0 0 0 41 15 24
0.0807967 0.0631439 -0.75102 0 0 0 42 17 20
0.0826953 0.0614303 -0.750254 0 0 0 48 24 20
0.082668 0.0598942 -0.75024 0 0 0 51 33 19
0.0864928 0.0580256 -0.748722 0 0 0 59 43 30
0.0864657 0.056497 -0.748708 0 0 0 76 62 62
0.0864386 0.0549685 -0.748694 0 0 0 91 80 86
0.0873746 0.0533624 -0.748304 0 0 0 72 66 68
0.0892738 0.0516844 -0.747538 0 0 0 39 28 32
0.0892468 0.0501615 -0.747525 0 0 0 18 0 1
0.0930725 0.0483511 -0.746007 0 0 0 38 6 7
0.0949722 0.0466956 -0.745241 0 0 0 109 74 52
0.0968719 0.0450477 -0.744476 0 0 0 145 111 84
0.0968451 0.0435397 -0.744462 0 0 0 150 118 107
0.0968184 0.0420318 -0.744448 0 0 0 148 117 112
0.0987184 0.0403989 -0.743683 0 0 0 149 120 112
0.0986917 0.0388947 -0.743669 0 0 0 137 107 96
0.098665 0.0373905 -0.743656 0 0 0 128 92 80
0.100565 0.0357725 -0.742891 0 0 0 154 116 103
0.100539 0.0342721 -0.742877 0 0 0 194 158 142
0.100512 0.0327716 -0.742864 0 0 0 206 172 162
0.100485 0.0312712 -0.74285 0 0 0 206 174 177
0.102386 0.029672 -0.742085 0 0 0 200 164 174
0.100432 0.0282703 -0.742823 0 0 0 205 165 176
0.0984782 0.0268611 -0.743561 0 0 0 205 163 173
0.0888144 0.0257942 -0.747305 0 0 0 205 164 172
0.0887874 0.0242713 -0.747292 0 0 0 211 165 175
0.0887604 0.0227483 -0.747278 0 0 0 217 163 176
0.0887333 0.0212254 -0.747264 0 0 0 218 162 175
0.0867786 0.0197749 -0.748002 0 0 0 215 165 176
0.0867515 0.0182482 -0.747988 0 0 0 218 172 185
0.0857605 0.016754 -0.74835 0 0 0 220 177 197
0.0838055 0.0152866 -0.749088 0 0 0 219 180 199
0.0799224 0.0138692 -0.750576 0 0 0 219 189 197
0.0798951 0.0123294 -0.750563 0 0 0 217 190 195
0.0779397 0.0108395 -0.7513 0 0 0 209 182 191
0.0779123 0.00929593 -0.751286 0 0 0 206 171 193
0.0759567 0.00779481 -0.752023 0 0 0 199 149 187
0.0759292 0.00624747 -0.752009 0 0 0 176 122 154
0.0739734 0.0047351 -0.752747 0 0 0 146 106 104
0.0739459 0.00318401 -0.752733 0 0 0 121 88 73
0.0739184 0.00163292 -0.752719 0 0 0 96 63 54
0.0719623 0.000105543 -0.753456 0 0 0 72 41 36
0.0719347 -0.00144929 -0.753442 0 0 0 71 42 36
0.0515145 -0.0108051 -0.76124 0 0 0 89 48 18
0.0514862 -0.0123993 -0.761226 0 0 0 94 48 22
0.0495288 -0.0140036 -0.761962 0 0 0 95 47 27
0.0495004 -0.0156016 -0.761948 0 0 0 102 53 36
0.0475428 -0.0172171 -0.762684 0 0 0 122 75 57
0.0475144 -0.0188189 -0.76267 0 0 0 145 100 81
0.0455565 -0.0204456 -0.763406 0 0 0 159 116 99
0.0435986 -0.0220799 -0.764142 0 0 0 163 123 113
0.0416404 -0.0237217 -0.764878 0 0 0 175 134 142
0.0416118 -0.0253347 -0.764863 0 0 0 181 139 159
0.0415832 -0.0269477 -0.764849 0 0 0 183 140 167
0.0396248 -0.0286045 -0.765585 0 0 0 168 129 134
0.0367014 -0.0302926 -0.766696 0 0 0 153 120 75
0.0328128 -0.0320175 -0.768182 0 0 0 137 106 39
0.0269941 -0.0338126 -0.770418 0 0 0 124 90 27
0.026965 -0.0354537 -0.770403 0 0 0 127 93 32
0.0269359 -0.0370948 -0.770388 0 0 0 139 105 44
0.0269067 -0.038736 -0.770374 0 0 0 152 116 66
0.0239823 -0.0404822 -0.771484 0 0 0 147 108 77
0.0239531 -0.0421289 -0.771469 0 0 0 128 88 63
-0.871347 0.00972024 0.442172 0 0 0 117 81 49
-0.871347 0.00972024 0.442172 0 0 0 121 84 58
-0.871347 0.00972024 0.442172 0 0 0 124 83 79
-0.871347 0.00972024 0.442172 0 0 0 124 84 85
0.0218764 -0.0504552 -0.772145 0 0 0 124 86 83
0.0218471 -0.0521057 -0.77213 0 0 0 120 84 70
0.0218178 -0.0537562 -0.772115 0 0 0 115 80 52
0.0198577 -0.0555105 -0.77285 0 0 0 114 80 43
0.0198283 -0.0571647 -0.772835 0 0 0 119 84 46
0.019799 -0.058819 -0.77282 0 0 0 121 85 53
-0.871347 0.00972024 0.442172 0 0 0 122 85 69
-0.871347 0.00972024 0.442172 0 0 0 124 87 81
-0.871347 0.00972024 0.442172 0 0 0 128 92 92
-0.871347 0.00972024 0.442172 0 0 0 128 94 92
-0.871347 0.00972024 0.442172 0 0 0 122 93 79
-0.871347 0.00972024 0.442172 0 0 0 118 91 72
-0.871347 0.00972024 0.442172 0 0 0 115 88 67
0.0572573 0.0938292 -0.759026 0 0 0 113 96 89
0.0572292 0.0922444 -0.759012 0 0 0 114 95 91
0.0572011 0.0906595 -0.758998 0 0 0 123 99 99
0.0591 0.0888409 -0.758234 0 0 0 114 87 94
0.059072 0.0872598 -0.758219 0 0 0 129 101 116
0.0609711 0.0854523 -0.757455 0 0 0 110 81 99
0.0609431 0.083875 -0.757441 0 0 0 58 32 45
0.0628424 0.0820788 -0.756677 0 0 0 30 5 8
0.0628145 0.0805052 -0.756663 0 0 0 24 3 0
0.064714 0.0787203 -0.755899 0 0 0 32 9 0
0.0646861 0.0771505 -0.755885 0 0 0 43 19 19
0.0665859 0.0753768 -0.755121 0 0 0 46 21 27
0.0704134 0.0734106 -0.753608 0 0 0 41 17 17
0.0723134 0.0716557 -0.752845 0 0 0 39 16 10
0.0780691 0.0695231 -0.750582 0 0 0 42 20 9
0.0780417 0.0679795 -0.750568 0 0 0 38 15 7
0.0799423 0.0662509 -0.749805 0 0 0 33 7 10
0.079915 0.064711 -0.749791 0 0 0 34 7 12
0.0798876 0.0631712 -0.749777 0 0 0 54 28 27
0.0817884 0.0614575 -0.749014 0 0 0 70 47 39
0.0836893 0.0597514 -0.748251 0 0 0 86 67 53
0.0855904 0.0580528 -0.747488 0 0 0 93 76 68
0.0865274 0.0564429 -0.7471 0 0 0 102 87 92
0.0865003 0.0549162 -0.747086 0 0 0 109 97 107
0.0864732 0.0533895 -0.747072 0 0 0 85 78 86
0.0883746 0.0517115 -0.746309 0 0 0 50 38 48
0.0883476 0.0501885 -0.746295 0 0 0 21 0 8
0.0921778 0.048378 -0.744784 0 0 0 39 7 10
0.0940797 0.0467224 -0.744021 0 0 0 105 73 52
0.0959816 0.0450744 -0.743258 0 0 0 148 116 93
0.0959548 0.0435665 -0.743245 0 0 0 149 116 109
0.097857 0.0419297 -0.742482 0 0 0 150 119 117
0.0978303 0.0404255 -0.742469 0 0 0 145 116 110
0.0997326 0.0388 -0.741706 0 0 0 136 106 96
0.099706 0.0372996 -0.741693 0 0 0 138 105 90
0.0996794 0.0357992 -0.741679 0 0 0 163 127 111
0.0996528 0.0342987 -0.741666 0 0 0 196 163 144
0.101555 0.032692 -0.740904 0 0 0 204 172 159
0.101529 0.0311953 -0.74089 0 0 0 202 171 169
0.101502 0.0296986 -0.740877 0 0 0 196 161 167
0.101476 0.0282019 -0.740863 0 0 0 202 166 170
0.101449 0.0267052 -0.74085 0 0 0 207 167 175
0.099493 0.025296 -0.741585 0 0 0 204 167 175
0.0994664 0.0237956 -0.741571 0 0 0 206 164 176
0.09751 0.0223752 -0.742306 0 0 0 213 161 173
0.0859043 0.0213287 -0.746783 0 0 0 215 161 174
0.0858772 0.019802 -0.74677 0 0 0 212 164 176
0.0858501 0.0182753 -0.746756 0 0 0 210 166 181
0.084858 0.0167811 -0.747116 0 0 0 216 173 193
0.0829008 0.0153138 -0.747851 0 0 0 221 182 201
0.0809435 0.013839 -0.748585 0 0 0 215 183 194
0.0809162 0.0123029 -0.748571 0 0 0 220 189 197
0.0789587 0.0108169 -0.749306 0 0 0 215 178 195
0.0789313 0.00927704 -0.749292 0 0 0 205 161 188
0.0750431 0.00782226 -0.750774 0 0 0 178 125 167
0.0750157 0.00627493 -0.75076 0 0 0 137 86 119
0.0730576 0.00476262 -0.751495 0 0 0 116 75 79
0.0730301 0.00321153 -0.751481 0 0 0 111 77 68
0.0730026 0.00166045 -0.751467 0 0 0 83 52 47
0.0710443 0.000133132 -0.752201 0 0 0 65 36 30
0.0710167 -0.00142171 -0.752187 0 0 0 66 39 30
0.0709892 -0.00297654 -0.752173 0 0 0 70 46 36
0.0505732 -0.0107768 -0.759954 0 0 0 91 56 26
0.0486137 -0.0123773 -0.760687 0 0 0 84 47 20
0.0485853 -0.0139753 -0.760673 0 0 0 73 34 17
0.048557 -0.0155732 -0.760658 0 0 0 76 34 20
0.0485286 -0.0171712 -0.760644 0 0 0 100 59 41
0.0465687 -0.0187904 -0.761377 0 0 0 131 88 69
0.042677 -0.0204421 -0.762858 0 0 0 147 104 85
0.0407167 -0.0220801 -0.763591 0 0 0 151 107 94
0.0406881 -0.0236931 -0.763576 0 0 0 175 135 133
0.0406595 -0.0253061 -0.763562 0 0 0 177 137 145
0.038699 -0.0269591 -0.764294 0 0 0 185 144 162
0.0386703 -0.0285758 -0.76428 0 0 0 180 141 144
0.0357436 -0.0302638 -0.765386 0 0 0 164 131 96
0.0318506 -0.0319886 -0.766866 0 0 0 144 113 59
0.0337539 -0.0335635 -0.766104 0 0 0 126 94 43
0.0259961 -0.0354246 -0.769078 0 0 0 129 96 45
0.025967 -0.0370657 -0.769064 0 0 0 131 98 45
0.0259378 -0.0387068 -0.769049 0 0 0 146 112 66
0.02301 -0.040453 -0.770155 0 0 0 146 107 74
0.0229808 -0.0420997 -0.77014 0 0 0 128 88 62
0.0229516 -0.0437464 -0.770125 0 0 0 118 81 54
0.0229224 -0.0453932 -0.77011 0 0 0 122 84 61
0.0228932 -0.0470399 -0.770096 0 0 0 125 85 75
0.0228639 -0.0486866 -0.770081 0 0 0 126 85 79
0.0228347 -0.0503334 -0.770066 0 0 0 125 86 79
0.0208726 -0.0520764 -0.770798 0 0 0 121 85 71
0.0208434 -0.0537269 -0.770783 0 0 0 117 81 57
0.0208141 -0.0553774 -0.770768 0 0 0 115 80 50
0.0207848 -0.0570279 -0.770753 0 0 0 118 82 48
0.0207555 -0.0586784 -0.770738 0 0 0 120 83 54
0.0207262 -0.0603288 -0.770724 0 0 0 121 84 66
-0.871347 0.00972024 0.442172 0 0 0 125 88 80
-0.871347 0.00972024 0.442172 0 0 0 129 94 90
-0.871347 0.00972024 0.442172 0 0 0 129 96 91
-0.871347 0.00972024 0.442172 0 0 0 123 94 78
-0.871347 0.00972024 0.442172 0 0 0 119 91 70
-0.871347 0.00972024 0.442172 0 0 0 113 85 64
0.0582507 0.0936122 -0.757 0 0 0 114 92 94
0.0582227 0.0920311 -0.756986 0 0 0 119 93 102
0.0581946 0.09045 -0.756972 0 0 0 123 93 103
0.0581665 0.0888689 -0.756957 0 0 0 125 93 108
0.0600678 0.0870577 -0.756196 0 0 0 127 98 120
0.0600398 0.0854803 -0.756182 0 0 0 103 79 105
0.0619413 0.0836803 -0.755421 0 0 0 29 10 38
0.0619134 0.0821067 -0.755407 0 0 0 13 0 16
0.063815 0.080318 -0.754646 0 0 0 16 6 0
0.0637872 0.0787482 -0.754632 0 0 0 29 17 1
0.065689 0.0769707 -0.753871 0 0 0 37 21 22
0.067591 0.0752007 -0.753111 0 0 0 36 16 25
0.0694932 0.0734382 -0.75235 0 0 0 31 12 16
0.0713954 0.0716832 -0.75159 0 0 0 30 10 9
0.0771578 0.0695505 -0.749336 0 0 0 36 15 10
0.0771304 0.0680069 -0.749322 0 0 0 49 24 19
0.077103 0.0664633 -0.749308 0 0 0 66 38 34
0.0790058 0.0647383 -0.748548 0 0 0 81 52 48
0.0789785 0.0631985 -0.748534 0 0 0 95 66 62
0.0808815 0.0614848 -0.747774 0 0 0 110 81 77
0.084715 0.0596085 -0.746268 0 0 0 120 92 89
0.0856531 0.0579967 -0.745881 0 0 0 120 98 100
0.085626 0.05647 -0.745867 0 0 0 117 97 108
0.0855989 0.0549433 -0.745853 0 0 0 107 93 108
0.0875025 0.0532614 -0.745094 0 0 0 80 69 86
0.0874755 0.0517385 -0.74508 0 0 0 39 24 43
0.0874485 0.0502155 -0.745066 0 0 0 20 0 12
0.093214 0.048261 -0.742814 0 0 0 37 6 14
0.0931872 0.0467493 -0.742801 0 0 0 99 69 59
0.0950913 0.0451012 -0.742041 0 0 0 143 114 100
0.0969956 0.0434606 -0.741282 0 0 0 152 121 118
0.0969689 0.0419564 -0.741268 0 0 0 146 114 115
0.0988734 0.0403271 -0.740509 0 0 0 150 119 117
0.0988468 0.0388267 -0.740495 0 0 0 138 104 103
0.0988201 0.0373262 -0.740482 0 0 0 119 85 84
0.0987935 0.0358258 -0.740468 0 0 0 150 115 113
0.0987669 0.0343253 -0.740455 0 0 0 196 162 153
0.100672 0.0327185 -0.739696 0 0 0 201 166 160
0.100645 0.0312218 -0.739682 0 0 0 201 166 170
0.100619 0.0297251 -0.739669 0 0 0 200 165 171
0.100592 0.0282284 -0.739655 0 0 0 203 167 171
0.100566 0.0267317 -0.739642 0 0 0 197 162 168
0.0986072 0.0253227 -0.740374 0 0 0 194 160 176
0.0985805 0.0238222 -0.74036 0 0 0 198 161 178
0.096622 0.0224019 -0.741092 0 0 0 210 164 175
0.086935 0.0212794 -0.744806 0 0 0 215 165 176
0.086908 0.0197565 -0.744792 0 0 0 207 164 174
0.086881 0.0182335 -0.744778 0 0 0 208 164 179
0.0849217 0.0167757 -0.74551 0 0 0 215 167 189
0.0839284 0.0152796 -0.745869 0 0 0 215 170 191
0.0839013 0.0137511 -0.745855 0 0 0 226 188 203
0.0819418 0.0122763 -0.746586 0 0 0 219 178 196
0.079982 0.0107941 -0.747318 0 0 0 220 165 194
0.0818874 0.00921167 -0.746559 0 0 0 201 141 177
0.0779949 0.00776453 -0.748035 0 0 0 162 104 145
0.0741021 0.00630238 -0.749511 0 0 0 127 75 111
0.0740747 0.00475505 -0.749497 0 0 0 123 81 95
0.0721144 0.00323905 -0.750229 0 0 0 96 59 66
0.0720868 0.00168797 -0.750215 0 0 0 46 13 22
0.0720593 0.000136882 -0.750201 0 0 0 64 35 40
0.0700988 -0.00139412 -0.750932 0 0 0 69 43 42
0.0700712 -0.00294895 -0.750918 0 0 0 66 42 38
0.0700436 -0.00450379 -0.750904 0 0 0 66 40 43
0.0496037 -0.0123428 -0.758653 0 0 0 63 35 21
0.0495754 -0.013937 -0.758638 0 0 0 54 30 20
0.0495472 -0.0155312 -0.758624 0 0 0 64 37 30
0.0495189 -0.0171254 -0.758609 0 0 0 65 35 25
0.0494906 -0.0187197 -0.758595 0 0 0 86 48 35
0.041727 -0.0204136 -0.761559 0 0 0 127 80 62
0.0397644 -0.0220515 -0.762289 0 0 0 139 91 77
0.0397358 -0.0236645 -0.762274 0 0 0 170 129 127
0.0397072 -0.0252775 -0.76226 0 0 0 188 149 154
0.0377445 -0.0269304 -0.762989 0 0 0 190 153 161
0.0377158 -0.0285471 -0.762975 0 0 0 181 147 148
0.0347857 -0.030235 -0.764077 0 0 0 171 140 122
0.0328227 -0.0319085 -0.764806 0 0 0 149 119 93
0.0327938 -0.0335346 -0.764792 0 0 0 126 96 70
0.0308305 -0.0352194 -0.765521 0 0 0 124 93 65
0.0269325 -0.0369742 -0.766995 0 0 0 129 96 65
0.0249689 -0.0386777 -0.767724 0 0 0 131 96 66
0.0220378 -0.0404237 -0.768826 0 0 0 138 101 75
0.0220086 -0.0420705 -0.768811 0 0 0 127 89 70
0.0219794 -0.0437172 -0.768796 0 0 0 121 78 71
0.0248524 -0.0452422 -0.767665 0 0 0 125 81 80
0.0219209 -0.0470107 -0.768766 0 0 0 123 79 78
0.0218917 -0.0486574 -0.768752 0 0 0 128 87 83
0.0218625 -0.0503042 -0.768737 0 0 0 126 87 82
0.0218333 -0.0519509 -0.768722 0 0 0 120 81 74
0.0198689 -0.0536976 -0.769451 0 0 0 117 78 71
0.0198396 -0.0553481 -0.769436 0 0 0 118 80 69
0.017875 -0.057106 -0.770165 0 0 0 118 82 60
0.019781 -0.0586491 -0.769406 0 0 0 121 85 63
0.0197518 -0.0602996 -0.769391 0 0 0 124 86 73
-0.871347 0.00972024 0.442172 0 0 0 124 85 78
-0.871347 0.00972024 0.442172 0 0 0 128 90 87
-0.871347 0.00972024 0.442172 0 0 0 128 93 87
-0.871347 0.00972024 0.442172 0 0 0 126 92 80
-0.871347 0.00972024 0.442172 0 0 0 119 86 69
-0.871347 0.00972024 0.442172 0 0 0 111 77 65
0.0573172 0.0936403 -0.755724 0 0 0 117 92 96
0.0572892 0.0920592 -0.75571 0 0 0 119 93 104
0.0572611 0.0904781 -0.755695 0 0 0 121 89 100
0.0591645 0.088663 -0.754937 0 0 0 123 91 106
0.0591365 0.0870857 -0.754923 0 0 0 122 94 116
0.0610402 0.0852818 -0.754165 0 0 0 97 74 102
0.0610123 0.0837083 -0.754151 0 0 0 23 9 44
0.0609843 0.0821347 -0.754137 0 0 0 13 3 27
0.0628882 0.0803459 -0.753379 0 0 0 13 9 0
0.0647922 0.0785646 -0.752621 0 0 0 20 14 0
0.0647644 0.0769985 -0.752607 0 0 0 21 10 8
0.0686007 0.0750245 -0.751106 0 0 0 25 8 14
0.070505 0.0732657 -0.750349 0 0 0 26 10 11
0.0724096 0.0715144 -0.749591 0 0 0 37 19 19
0.0743143 0.0697706 -0.748834 0 0 0 57 36 33
0.0762191 0.0680343 -0.748076 0 0 0 78 53 49
0.078124 0.0663055 -0.747319 0 0 0 94 66 62
0.0780967 0.0647657 -0.747305 0 0 0 106 75 72
0.0800018 0.0630481 -0.746548 0 0 0 114 80 78
0.0819072 0.0613381 -0.745791 0 0 0 123 91 92
0.0838125 0.0596356 -0.745034 0 0 0 127 96 102
0.0847517 0.0580238 -0.744649 0 0 0 125 99 110
0.0847246 0.0564971 -0.744635 0 0 0 118 97 112
0.0866304 0.0548114 -0.743878 0 0 0 107 90 108
0.0866034 0.0532885 -0.743864 0 0 0 74 62 82
0.0865763 0.0517655 -0.743851 0 0 0 29 14 35
0.0904153 0.0499472 -0.742351 0 0 0 22 0 16
0.0923215 0.0482878 -0.741594 0 0 0 41 9 22
0.0942278 0.0466359 -0.740838 0 0 0 104 75 71
0.094201 0.045128 -0.740824 0 0 0 146 117 109
0.0961075 0.0434873 -0.740068 0 0 0 152 121 119
0.0960808 0.0419831 -0.740054 0 0 0 146 114 117
0.0979875 0.0403537 -0.739298 0 0 0 151 116 120
0.0979609 0.0388533 -0.739284 0 0 0 139 104 110
0.0998679 0.0372352 -0.738528 0 0 0 136 101 108
0.0998413 0.0357385 -0.738514 0 0 0 154 119 123
0.0998147 0.0342418 -0.738501 0 0 0 191 156 152
0.0997882 0.0327451 -0.738488 0 0 0 197 162 160
0.0997616 0.0312484 -0.738474 0 0 0 200 163 170
0.0997351 0.0297517 -0.738461 0 0 0 198 161 169
0.0997085 0.028255 -0.738447 0 0 0 199 164 168
0.0977479 0.0268497 -0.739176 0 0 0 193 160 167
0.0977213 0.0253493 -0.739163 0 0 0 196 163 180
0.0976947 0.0238488 -0.739149 0 0 0 200 165 185
0.0957339 0.0224286 -0.739878 0 0 0 206 162 179
0.0918387 0.0210772 -0.741349 0 0 0 207 160 176
0.0898775 0.0196382 -0.742078 0 0 0 209 165 182
0.0879162 0.0181916 -0.742807 0 0 0 209 166 185
0.0859548 0.0167376 -0.743535 0 0 0 212 168 185
0.083026 0.0153068 -0.744635 0 0 0 218 174 189
0.0829989 0.0137782 -0.744621 0 0 0 213 171 183
0.0810371 0.0123035 -0.74535 0 0 0 217 170 186
0.0790751 0.0108214 -0.746078 0 0 0 191 131 157
0.0809827 0.00923886 -0.745322 0 0 0 145 80 114
0.0770858 0.00779185 -0.746792 0 0 0 125 65 103
0.0751235 0.00629093 -0.74752 0 0 0 109 58 91
0.0731611 0.0047825 -0.748249 0 0 0 104 61 80
0.0711986 0.00326658 -0.748977 0 0 0 81 45 59
0.0711711 0.00171549 -0.748963 0 0 0 64 31 48
0.0711435 0.000164405 -0.748949 0 0 0 57 28 46
0.071116 -0.00138668 -0.748935 0 0 0 53 30 40
0.0691532 -0.00292137 -0.749663 0 0 0 57 34 44
0.0691256 -0.0044762 -0.749649 0 0 0 60 34 45
0.0505983 -0.0123084 -0.756624 0 0 0 49 28 25
0.05057 -0.0138989 -0.75661 0 0 0 41 25 25
0.0534456 -0.0154689 -0.755483 0 0 0 37 18 20
0.0505136 -0.0170798 -0.756581 0 0 0 36 11 15
0.0466134 -0.0187125 -0.75805 0 0 0 53 19 18
0.0388408 -0.0204099 -0.761001 0 0 0 89 43 30
0.036876 -0.0220515 -0.761728 0 0 0 114 65 51
0.0368474 -0.0236682 -0.761714 0 0 0 132 89 82
0.0368187 -0.025285 -0.761699 0 0 0 151 111 109
0.03679 -0.0269017 -0.761684 0 0 0 174 136 135
0.0367613 -0.0285184 -0.76167 0 0 0 184 151 146
0.0338279 -0.0302062 -0.762767 0 0 0 180 150 140
0.0318626 -0.0318797 -0.763494 0 0 0 163 133 123
0.0318337 -0.0335058 -0.763479 0 0 0 142 111 106
0.0298682 -0.0351905 -0.764206 0 0 0 133 100 95
0.0259658 -0.0369451 -0.765673 0 0 0 132 98 88
0.024 -0.0386486 -0.7664 0 0 0 127 91 77
0.0210656 -0.0403945 -0.767496 0 0 0 132 95 77
0.0210364 -0.0420413 -0.767482 0 0 0 124 86 75
0.0210071 -0.043688 -0.767467 0 0 0 117 75 77
0.0258206 -0.0451319 -0.7656 0 0 0 121 78 85
0.0209487 -0.0469815 -0.767437 0 0 0 121 80 78
0.0209195 -0.0486282 -0.767422 0 0 0 128 87 83
0.0208903 -0.050275 -0.767408 0 0 0 124 84 82
0.020861 -0.0519217 -0.767393 0 0 0 119 79 79
0.0188945 -0.0536683 -0.768119 0 0 0 117 76 80
0.0188652 -0.0553188 -0.768104 0 0 0 117 77 77
0.0168983 -0.0570767 -0.76883 0 0 0 117 79 66
0.0188066 -0.0586198 -0.768074 0 0 0 119 82 66
0.0187773 -0.0602703 -0.768059 0 0 0 122 84 75
-0.871347 0.00972024 0.442172 0 0 0 122 84 81
-0.871347 0.00972024 0.442172 0 0 0 123 85 84
-0.871347 0.00972024 0.442172 0 0 0 124 86 85
-0.871347 0.00972024 0.442172 0 0 0 122 85 77
-0.871347 0.00972024 0.442172 0 0 0 116 79 70
-0.871347 0.00972024 0.442172 0 0 0 111 74 68
0.0544502 0.0939136 -0.755189 0 0 0 117 93 93
0.0563557 0.0920872 -0.754433 0 0 0 120 95 101
0.0582612 0.0902683 -0.753678 0 0 0 119 88 93
0.0582332 0.088691 -0.753664 0 0 0 123 92 100
0.060139 0.0868834 -0.752909 0 0 0 121 94 111
0.0601111 0.0853098 -0.752895 0 0 0 93 70 96
0.0620171 0.0835134 -0.75214 0 0 0 23 8 41
0.0619892 0.0819436 -0.752126 0 0 0 14 4 28
0.0619614 0.0803737 -0.752112 0 0 0 12 5 0
0.0638676 0.0785923 -0.751357 0 0 0 14 5 0
0.0657739 0.0768185 -0.750603 0 0 0 25 10 3
0.0696147 0.0748481 -0.749108 0 0 0 40 22 18
0.0715213 0.073093 -0.748353 0 0 0 55 37 33
0.0734282 0.0713454 -0.747599 0 0 0 74 55 51
0.0753351 0.0696053 -0.746844 0 0 0 97 73 71
0.0753077 0.0680617 -0.74683 0 0 0 113 85 84
0.0772149 0.0663328 -0.746076 0 0 0 118 88 88
0.0791222 0.0646115 -0.745322 0 0 0 119 87 90
0.0790949 0.0630754 -0.745308 0 0 0 122 87 93
0.0810025 0.0613653 -0.744554 0 0 0 125 92 99
0.0829101 0.0596627 -0.7438 0 0 0 125 93 106
0.0838504 0.0580509 -0.743416 0 0 0 125 97 112
0.0857582 0.0563614 -0.742662 0 0 0 122 99 117
0.0857312 0.0548384 -0.742649 0 0 0 111 94 112
0.0857042 0.0533155 -0.742635 0 0 0 75 63 83
0.0876123 0.051641 -0.741881 0 0 0 26 11 30
0.0895206 0.0499741 -0.741128 0 0 0 25 0 17
0.091429 0.0483146 -0.740374 0 0 0 44 12 23
0.0933375 0.0466627 -0.739621 0 0 0 108 79 75
0.0971815 0.0448817 -0.738127 0 0 0 145 116 108
0.0971549 0.0433813 -0.738114 0 0 0 148 116 117
0.0971283 0.0418808 -0.7381 0 0 0 143 111 116
0.0971017 0.0403804 -0.738087 0 0 0 150 115 121
0.0990108 0.0387584 -0.737333 0 0 0 141 106 113
0.0989842 0.0372617 -0.73732 0 0 0 139 101 112
0.0989576 0.035765 -0.737306 0 0 0 152 115 123
0.0989311 0.0342683 -0.737293 0 0 0 187 151 151
0.0989045 0.0327716 -0.737279 0 0 0 200 164 164
0.098878 0.0312749 -0.737266 0 0 0 207 170 178
0.0988514 0.0297782 -0.737253 0 0 0 203 165 176
0.0988249 0.0282815 -0.737239 0 0 0 202 165 172
0.0968621 0.0268763 -0.737965 0 0 0 197 161 171
0.0968354 0.0253759 -0.737952 0 0 0 196 161 181
0.0968088 0.0238755 -0.737938 0 0 0 204 165 192
0.0948458 0.0224552 -0.738664 0 0 0 202 158 185
0.0909462 0.021104 -0.740129 0 0 0 201 152 181
0.0889828 0.0196651 -0.740855 0 0 0 208 159 189
0.0870193 0.0182186 -0.74158 0 0 0 206 160 186
0.0850557 0.0167646 -0.742306 0 0 0 203 163 174
0.0821235 0.0153339 -0.743401 0 0 0 212 173 176
0.0820964 0.0138053 -0.743387 0 0 0 208 168 168
0.0820693 0.0122767 -0.743374 0 0 0 198 152 154
0.0781682 0.0108486 -0.744838 0 0 0 164 111 121
0.080078 0.00926605 -0.744085 0 0 0 139 82 101
0.0781137 0.00777645 -0.74481 0 0 0 140 83 115
0.0761494 0.00627934 -0.745535 0 0 0 114 63 94
0.076122 0.00473951 -0.745522 0 0 0 94 52 72
0.0722201 0.00326263 -0.746986 0 0 0 83 49 66
0.0721927 0.00171529 -0.746972 0 0 0 72 43 63
0.0702278 0.000191927 -0.747697 0 0 0 52 26 51
0.0702003 -0.00135916 -0.747683 0 0 0 48 23 53
0.0701727 -0.00291025 -0.747669 0 0 0 52 29 57
0.0701452 -0.00446133 -0.747655 0 0 0 46 23 41
0.0545322 -0.010684 -0.753508 0 0 0 32 8 21
0.0545041 -0.0122651 -0.753494 0 0 0 39 19 31
0.052538 -0.0138559 -0.754218 0 0 0 36 22 37
0.0525099 -0.0154408 -0.754204 0 0 0 21 4 23
0.0495746 -0.0170516 -0.755297 0 0 0 21 0 23
0.0456699 -0.0186841 -0.75676 0 0 0 37 4 23
0.0378885 -0.0203813 -0.759699 0 0 0 56 15 11
0.0359215 -0.0220228 -0.760423 0 0 0 93 47 32
0.0378312 -0.0236072 -0.75967 0 0 0 129 86 70
0.0358642 -0.0252563 -0.760394 0 0 0 143 101 87
0.0358355 -0.026873 -0.760379 0 0 0 163 124 109
0.0358068 -0.0284897 -0.760365 0 0 0 175 139 127
0.0357781 -0.0301065 -0.76035 0 0 0 172 139 130
0.0328413 -0.0317998 -0.761443 0 0 0 165 134 132
0.0308737 -0.0334769 -0.762167 0 0 0 158 125 134
0.0289059 -0.0351616 -0.76289 0 0 0 150 117 128
0.0249991 -0.0369161 -0.764352 0 0 0 138 103 109
0.0230311 -0.0386195 -0.765075 0 0 0 120 86 85
0.0200933 -0.0403653 -0.766167 0 0 0 118 83 79
0.0200641 -0.042012 -0.766152 0 0 0 114 79 75
0.0200349 -0.0436588 -0.766138 0 0 0 110 71 74
0.0248539 -0.0451029 -0.764278 0 0 0 114 75 76
0.0248248 -0.0467402 -0.764263 0 0 0 118 81 73
-0.871347 0.00972024 0.442172 0 0 0 123 86 78
0.0179786 -0.050338 -0.766816 0 0 0 121 83 82
0.0179493 -0.0519885 -0.766801 0 0 0 117 78 81
0.01792 -0.053639 -0.766786 0 0 0 115 75 83
0.0178907 -0.0552895 -0.766772 0 0 0 115 76 79
0.0159217 -0.0570473 -0.767494 0 0 0 114 77 68
0.0158923 -0.0587016 -0.76748 0 0 0 115 78 69
-0.871347 0.00972024 0.442172 0 0 0 119 81 78
-0.871347 0.00972024 0.442172 0 0 0 118 82 84
-0.871347 0.00972024 0.442172 0 0 0 118 82 86
-0.871347 0.00972024 0.442172 0 0 0 118 82 86
-0.871347 0.00972024 0.442172 0 0 0 115 80 78
-0.871347 0.00972024 0.442172 0 0 0 111 76 74
-0.871347 0.00972024 0.442172 0 0 0 108 72 76
0.0535145 0.0939417 -0.753909 0 0 0 116 92 90
0.0534864 0.0923569 -0.753895 0 0 0 120 95 98
0.05733 0.0902963 -0.752405 0 0 0 120 91 93
0.0592379 0.0884849 -0.751653 0 0 0 124 95 100
0.05921 0.0869113 -0.751639 0 0 0 122 96 109
0.0611181 0.0851111 -0.750887 0 0 0 94 72 95
0.0610902 0.0835413 -0.750873 0 0 0 22 7 38
0.0610624 0.0819714 -0.750859 0 0 0 12 0 22
0.0629708 0.0801862 -0.750107 0 0 0 12 3 0
0.062943 0.0786201 -0.750093 0 0 0 20 9 0
0.0667879 0.0766384 -0.748604 0 0 0 36 20 5
0.0686967 0.0748757 -0.747853 0 0 0 61 43 31
0.0706056 0.0731205 -0.747101 0 0 0 86 68 58
0.0725146 0.0713728 -0.74635 0 0 0 104 84 77
0.0763605 0.0694398 -0.744861 0 0 0 119 93 92
0.0763331 0.0679 -0.744847 0 0 0 126 97 99
0.0763058 0.0663601 -0.744833 0 0 0 126 95 101
0.0782153 0.0646387 -0.744082 0 0 0 125 92 101
0.080125 0.0629248 -0.743331 0 0 0 122 86 98
0.0820347 0.0612184 -0.74258 0 0 0 122 88 104
0.0829761 0.0596047 -0.742198 0 0 0 120 87 104
0.0848861 0.0579114 -0.741447 0 0 0 121 94 113
0.0848591 0.0563884 -0.741433 0 0 0 122 101 120
0.0848321 0.0548655 -0.741419 0 0 0 114 97 116
0.0848051 0.0533425 -0.741406 0 0 0 77 66 83
0.0867154 0.051668 -0.740655 0 0 0 25 10 29
0.0905633 0.0498531 -0.739168 0 0 0 27 0 19
0.0924739 0.0481974 -0.738417 0 0 0 44 12 23
0.0943848 0.0465491 -0.737666 0 0 0 108 79 75
0.0962957 0.0449083 -0.736916 0 0 0 140 111 103
0.0982068 0.0432751 -0.736166 0 0 0 143 111 112
0.0981802 0.0417784 -0.736152 0 0 0 142 109 116
0.0981537 0.0402817 -0.736139 0 0 0 149 114 121
0.0981271 0.038785 -0.736125 0 0 0 143 107 117
0.0990695 0.0372294 -0.735743 0 0 0 131 93 106
0.099043 0.0357345 -0.73573 0 0 0 150 112 123
0.0980474 0.0342949 -0.736085 0 0 0 189 153 155
0.09899 0.0327449 -0.735703 0 0 0 201 165 167
0.0989634 0.0312501 -0.73569 0 0 0 207 169 180
0.0979678 0.0298048 -0.736044 0 0 0 204 166 179
0.0979412 0.0283081 -0.736031 0 0 0 204 167 175
0.0959762 0.026903 -0.736754 0 0 0 200 162 175
0.0959496 0.0254025 -0.73674 0 0 0 199 161 184
0.0939844 0.0239861 -0.737463 0 0 0 204 165 192
0.0920191 0.0225622 -0.738186 0 0 0 203 160 190
0.0900536 0.0211308 -0.738909 0 0 0 200 153 185
0.0900268 0.0196191 -0.738895 0 0 0 201 151 186
0.0861223 0.0182455 -0.740354 0 0 0 198 152 178
0.0841565 0.0167916 -0.741077 0 0 0 196 160 164
