# .PCD v0.7 - Point Cloud Data file format
VERSION 0.7
FIELDS x y z
SIZE 4 4 4
TYPE F F F
COUNT 1 1 1
WIDTH 1339
HEIGHT 1
VIEWPOINT 0 0 0 0 0.5 0 0
POINTS 1339
DATA ascii
-0.0576028 0.0216971 -0.76645201
-0.057569198 0.0224308 -0.76501101
-0.0575356 0.0231645 -0.76357001
-0.0553932 0.0209723 -0.71715403
-0.0553605 0.021686399 -0.71575201
-0.055327799 0.022400601 -0.71434999
-0.055295099 0.0231147 -0.71294802
-0.055262402 0.023828801 -0.71154499
-0.055229701 0.024543 -0.71014303
-0.054988898 0.0212826 -0.70772398
-0.0548524 0.020004399 -0.705823
-0.054716099 0.0187227 -0.70392901
-0.0546837 0.01943 -0.70254099
-0.054651301 0.020137301 -0.70115203
-0.054618899 0.0208447 -0.699763
-0.0545865 0.021552 -0.69837397
-0.054554101 0.022259301 -0.69698501
-0.054057099 0.0245963 -0.68357599
-0.053922102 0.023283999 -0.68174201
-0.053890001 0.0239862 -0.680363
-0.053723201 0.023369299 -0.67716402
-0.0535887 0.022046801 -0.67535001
-0.053659 0.024770301 -0.67441303
-0.053626999 0.025470899 -0.67303801
-0.053492699 0.0241432 -0.67123401
-0.053562801 0.026871899 -0.67028701
-0.053530801 0.027572401 -0.66891098
-0.053396702 0.0262396 -0.66711801
-0.053364702 0.0269385 -0.66574502
-0.055603601 0.0091332197 -0.769023
-0.055570401 0.0098584304 -0.76759899
-0.055743702 0.0144286 -0.76744699
-0.055710301 0.0151572 -0.76601601
-0.055780001 0.017811701 -0.76521403
-0.055849601 0.0204696 -0.76440603
-0.055816099 0.021201599 -0.76296902
-0.055782601 0.0219336 -0.76153201
-0.055238299 0.0171104 -0.75335997
-0.055205099 0.0178356 -0.75193602
-0.055171899 0.018560801 -0.750512
-0.0550364 0.0173431 -0.74849302
-0.0550033 0.0180666 -0.74707299
-0.054970201 0.0187901 -0.74565202
-0.054834999 0.0175655 -0.74364603
-0.055005901 0.022186801 -0.743393
-0.054768901 0.0190091 -0.74081099
-0.054582998 0.016801201 -0.73853099
-0.0545501 0.0175205 -0.73711902
-0.054517198 0.018239699 -0.73570698
-0.0544842 0.0189589 -0.734294
-0.054349799 0.0177182 -0.73232001
-0.0544184 0.0203974 -0.73146999
-0.054385401 0.021116599 -0.73005801
-0.054185499 0.0213059 -0.72527599
-0.054152701 0.0220234 -0.723867
-0.054119799 0.022740901 -0.722458
-0.053852402 0.020225501 -0.71857601
-0.053819701 0.0209396 -0.71717399
-0.053787 0.021653701 -0.71577197
-0.0537543 0.0223679 -0.71437001
-0.053621098 0.0211 -0.71244901
-0.053588498 0.0218124 -0.71104997
-0.053555898 0.0225248 -0.70965099
-0.053322699 0.019262901 -0.70723498
-0.05319 0.017983001 -0.705338
-0.053157602 0.018690299 -0.70394897
-0.053025201 0.0174054 -0.70206201
-0.0530928 0.020105001 -0.70117199
-0.053060502 0.020812299 -0.69978303
-0.053028099 0.021519599 -0.698394
-0.0528959 0.020227799 -0.69651997
-0.052863602 0.0209335 -0.69513398
-0.052734401 0.023755901 -0.68959302
-0.052702099 0.024461601 -0.68820697
-0.052407101 0.022549599 -0.68313998
-0.052276 0.021235701 -0.68131
-0.0522439 0.021936201 -0.67993498
-0.052113 0.0206172 -0.678114
-0.052081 0.021315999 -0.67674202
-0.052049 0.0220148 -0.67536998
-0.052017 0.0227136 -0.673998
-0.051984999 0.023412401 -0.67262602
-0.051952999 0.0241112 -0.67125303
-0.052019399 0.0268398 -0.67030603
-0.051987302 0.0275403 -0.66893101
-0.051857099 0.0262077 -0.66713703
-0.0519232 0.0289413 -0.66618001
-0.0518911 0.0296419 -0.664805
-0.054005802 0.0091000199 -0.76904398
-0.053972598 0.0098252203 -0.76762003
-0.0540388 0.0124728 -0.76683199
-0.054005601 0.0131997 -0.76540399
-0.0539723 0.0139266 -0.76397699
-0.054137498 0.018508499 -0.76380098
-0.054104101 0.0192388 -0.76236701
-0.0540707 0.0199691 -0.76093298
-0.0536405 0.0170772 -0.75338101
-0.0536073 0.017802401 -0.751957
-0.053475499 0.016586499 -0.74993402
-0.053442299 0.017309999 -0.74851298
-0.0534092 0.0180334 -0.74709302
-0.053376101 0.0187569 -0.74567199
-0.053244598 0.0175325 -0.74366599
-0.0532116 0.0182542 -0.74224901
-0.053031299 0.0160491 -0.73996401
-0.052998301 0.016768301 -0.73855102
-0.052965399 0.0174875 -0.73713899
-0.052932501 0.018206799 -0.73572701
-0.052899599 0.018926 -0.73431498
-0.0527688 0.0176853 -0.73233998
-0.052735999 0.018402901 -0.73093098
-0.052605499 0.017157201 -0.72896701
-0.052572701 0.017873 -0.72756201
-0.052540001 0.0185888 -0.726156
-0.052507199 0.0193047 -0.724751
-0.052474398 0.0200205 -0.72334498
-0.052441601 0.020736299 -0.72193998
-0.0523117 0.019478699 -0.71999902
-0.052278999 0.0201928 -0.71859598
-0.052246299 0.020906899 -0.71719402
-0.052213602 0.021621101 -0.715792
-0.052083999 0.020354901 -0.71386802
-0.051954702 0.019085299 -0.71195
-0.051922102 0.0197961 -0.71055502
-0.051793002 0.0185214 -0.70864701
-0.051663999 0.0172433 -0.706747
-0.0516316 0.0179506 -0.70535803
-0.051599201 0.0186579 -0.703969
-0.051470499 0.0173731 -0.70208198
-0.051438201 0.0180787 -0.70069599
-0.051502001 0.0207799 -0.69980299
-0.051469602 0.021487201 -0.69841403
-0.051341299 0.020195501 -0.69654
-0.051309001 0.020901199 -0.69515401
-0.051276699 0.021606799 -0.69376898
-0.0512443 0.022312401 -0.69238299
-0.051212002 0.023018001 -0.69099802
-0.0511797 0.023723699 -0.68961197
-0.0510519 0.022420101 -0.68776202
-0.051019698 0.023124 -0.68638003
-0.0509874 0.023827899 -0.68499702
-0.050955199 0.0245318 -0.68361503
-0.050732601 0.0212036 -0.68133003
-0.050700501 0.0219041 -0.67995399
-0.050573301 0.0205852 -0.67813402
-0.0505413 0.021283999 -0.67676198
-0.050509401 0.0219828 -0.67538899
-0.0504774 0.022681599 -0.67401701
-0.0504454 0.023380401 -0.67264497
-0.0504134 0.0240792 -0.67127299
-0.0503814 0.0247781 -0.66990101
-0.050349399 0.0254768 -0.66852897
-0.050317399 0.0261757 -0.66715699
-0.050285399 0.026874499 -0.66578501
-0.050253399 0.027573301 -0.66441298
-0.052183099 0.0059507401 -0.76636201
-0.052341498 0.0105172 -0.76621598
-0.052308299 0.0112424 -0.76479203
-0.052370701 0.0138933 -0.76399702
-0.052432999 0.0165477 -0.76319599
-0.052304201 0.0153471 -0.76114303
-0.0522709 0.016074 -0.75971597
-0.0521423 0.0148684 -0.75767303
-0.0521091 0.0155936 -0.75624901
-0.051980801 0.0143828 -0.75421602
-0.051947702 0.0151063 -0.75279498
-0.051914498 0.0158298 -0.75137502
-0.051881399 0.0165533 -0.74995399
-0.0518483 0.017276799 -0.74853402
-0.051815201 0.018000299 -0.74711299
-0.051782001 0.018723801 -0.74569303
-0.051654302 0.0174994 -0.74368602
-0.051621299 0.0182212 -0.74226898
-0.051446602 0.0160161 -0.73998398
-0.0514137 0.016735399 -0.738572
-0.051380701 0.0174546 -0.73715901
-0.0513478 0.018173801 -0.73574698
-0.0512207 0.0169349 -0.733769
-0.051187899 0.0176525 -0.73236001
-0.051155001 0.018370001 -0.73095202
-0.0510283 0.0171244 -0.72898698
-0.0509017 0.0158753 -0.72702998
-0.050868999 0.016589399 -0.72562701
-0.050836299 0.017303601 -0.72422498
-0.0508972 0.019987701 -0.72336501
-0.050770901 0.018731801 -0.721421
-0.0506448 0.017472601 -0.71948302
-0.0506122 0.018185001 -0.71808398
-0.0505796 0.018897399 -0.71668601
-0.050547 0.0196099 -0.71528703
-0.050421301 0.0183421 -0.71336597
-0.050295699 0.017070901 -0.71145201
-0.0502632 0.0177799 -0.71006
-0.0501379 0.0165036 -0.70815498
-0.050105501 0.017210901 -0.70676601
-0.050073098 0.017918199 -0.705378
-0.0499481 0.0166352 -0.70348698
-0.049915802 0.0173408 -0.70210099
-0.0498835 0.0180464 -0.70071602
-0.049851201 0.018751999 -0.69933099
-0.049818899 0.019457599 -0.697945
-0.049786601 0.020163201 -0.69656003
-0.049754299 0.020868801 -0.69517398
-0.049722001 0.021574499 -0.69378901
-0.049597699 0.020276099 -0.69192803
-0.049565401 0.02098 -0.69054598
-0.049625002 0.0236913 -0.689632
-0.049501002 0.022387801 -0.68778098
-0.0494687 0.0230917 -0.68639898
-0.049436498 0.0237957 -0.68501699
-0.049404301 0.024499601 -0.683635
-0.049280599 0.023187499 -0.68180102
-0.049065702 0.0198544 -0.67952502
-0.049033701 0.0205532 -0.67815298
-0.048910402 0.019231001 -0.67633897
-0.048878498 0.0199281 -0.67497098
-0.048846599 0.0206252 -0.67360198
-0.048814699 0.021322301 -0.67223299
-0.048782799 0.022019399 -0.67086399
-0.0488417 0.024746099 -0.66992098
-0.0488097 0.025444901 -0.66854799
-0.048777699 0.0261437 -0.66717601
-0.048745699 0.026842499 -0.66580403
-0.048713699 0.0275413 -0.66443199
-0.048681699 0.0282401 -0.66306001
-0.050592799 0.0059177 -0.76638198
-0.050651699 0.0085617797 -0.76560098
-0.0506186 0.0092852702 -0.76418
-0.050585501 0.0100088 -0.76275998
-0.050735898 0.0145869 -0.762591
-0.050702602 0.0153138 -0.761163
-0.050669301 0.0160407 -0.759736
-0.0505445 0.0148352 -0.75769299
-0.0504198 0.0136262 -0.75565702
-0.050386701 0.0143497 -0.75423598
-0.050353602 0.0150732 -0.75281602
-0.050320499 0.0157967 -0.75139499
-0.050287299 0.0165202 -0.74997503
-0.050163101 0.015301 -0.747958
-0.050130099 0.0160228 -0.74654102
-0.050097 0.016744601 -0.74512398
-0.050064001 0.0174664 -0.743707
-0.050030999 0.0181881 -0.74228901
-0.049861901 0.0159832 -0.740004
-0.049828999 0.016702401 -0.73859203
-0.049796 0.0174217 -0.73717898
-0.049763098 0.018140901 -0.73576701
-0.049549401 0.0149441 -0.73322397
-0.049607001 0.017619601 -0.73238099
-0.049483899 0.016375801 -0.73041302
-0.049361002 0.0151285 -0.72845203
-0.049328301 0.0158426 -0.72705001
-0.049295601 0.016556701 -0.72564697
-0.0492629 0.0172709 -0.72424501
-0.049230199 0.017984999 -0.72284299
-0.049107801 0.0167275 -0.72090203
-0.049075201 0.017440001 -0.71950299
-0.049042501 0.018152401 -0.718104
-0.049009901 0.018864799 -0.71670598
-0.048887901 0.0175988 -0.71478099
-0.048765998 0.0163294 -0.71286398
-0.0486442 0.0150566 -0.710953
-0.048611902 0.015763899 -0.70956397
-0.048490401 0.014486 -0.707663
-0.048458099 0.0151916 -0.70627803
-0.048425701 0.0158972 -0.70489198
-0.048393399 0.016602799 -0.70350701
-0.0483611 0.0173085 -0.70212102
-0.048328798 0.018014099 -0.70073599
-0.0482965 0.018719699 -0.69935
-0.048264202 0.019425301 -0.69796503
-0.0482319 0.020130901 -0.69657898
-0.048199601 0.020836599 -0.69519401
-0.048078999 0.0195399 -0.69332999
-0.047958501 0.0182398 -0.69147199
-0.047926299 0.018942101 -0.69009399
-0.047982302 0.0216517 -0.689183
-0.04795 0.022355599 -0.687801
-0.0478299 0.0210487 -0.68595701
-0.047797699 0.021750901 -0.684578
-0.047765601 0.022453099 -0.6832
-0.047645699 0.021139501 -0.68136901
-0.047350701 0.015787199 -0.67864799
-0.047406401 0.018502001 -0.677728
-0.047199599 0.0151571 -0.675475
-0.0471678 0.015850799 -0.67411298
-0.0470924 0.0155323 -0.67253298
-0.047104299 0.0172382 -0.67138898
-0.0470725 0.017931901 -0.67002702
-0.047214899 0.0226846 -0.66951501
-0.047183 0.023381701 -0.66814601
-0.0471511 0.024078799 -0.66677701
-0.0471192 0.0247759 -0.66540903
-0.047087301 0.025473 -0.66404003
-0.0470553 0.026170099 -0.66267103
-0.049002498 0.0058846502 -0.76640302
-0.0490577 0.0085286396 -0.76562101
-0.0490245 0.0092521496 -0.76420099
-0.048991401 0.0099756401 -0.76278001
-0.0490463 0.0126264 -0.761985
-0.049100999 0.0152805 -0.76118398
-0.049067698 0.016007399 -0.75975603
-0.048946701 0.014802 -0.75771302
-0.0488258 0.0135931 -0.75567698
-0.048705 0.0123808 -0.75364798
-0.048759501 0.0150401 -0.75283599
-0.048726398 0.015763599 -0.75141501
-0.0486059 0.0145461 -0.74939603
-0.048572801 0.0152679 -0.74797899
-0.048539799 0.0159897 -0.74656099
-0.0485067 0.0167115 -0.74514401
-0.048473701 0.017433301 -0.74372703
-0.048440602 0.0181551 -0.74230999
-0.048277199 0.0159503 -0.74002397
-0.048244301 0.016669501 -0.738612
-0.048211299 0.0173887 -0.73720002
-0.048178401 0.018107999 -0.73578697
-0.047972299 0.0149113 -0.733244
-0.047939502 0.0156272 -0.731839
-0.047906701 0.016342999 -0.73043299
-0.047787599 0.0150958 -0.72847199
-0.047754899 0.015809899 -0.72706997
-0.047635902 0.0145576 -0.72511899
-0.047603302 0.0152701 -0.72372001
-0.047570702 0.015982499 -0.72232097
-0.047538102 0.0166949 -0.72092199
-0.047505502 0.0174073 -0.71952301
-0.047387 0.016144801 -0.717592
-0.047354501 0.016855501 -0.71619701
-0.047236301 0.0155879 -0.71427602
-0.047118202 0.0143169 -0.71236098
-0.047085799 0.0150242 -0.71097302
-0.046967998 0.0137481 -0.709068
-0.0469357 0.0144537 -0.70768303
-0.0468181 0.0131725 -0.70578903
-0.0468711 0.015864899 -0.70491201
-0.0467536 0.0145803 -0.70302403
-0.046721399 0.0152842 -0.70164198
-0.046689201 0.0159881 -0.70025998
-0.046656899 0.016692 -0.69887799
-0.046624701 0.017395999 -0.697496
-0.046507701 0.0161011 -0.69562799
-0.0464756 0.0168033 -0.69424999
-0.046443399 0.0175055 -0.69287097
-0.046326801 0.0162038 -0.69101697
-0.046379101 0.0189099 -0.69011301
-0.046347 0.0196121 -0.68873399
-0.046230599 0.0183054 -0.68689001
-0.046198498 0.0190059 -0.68551499
-0.046166401 0.0197064 -0.68413901
-0.046134301 0.0204069 -0.68276399
-0.046018299 0.019091601 -0.68093699
-0.045692701 0.0127291 -0.67799401
-0.045702901 0.0144316 -0.67685699
-0.0456293 0.0141148 -0.67527401
-0.045597501 0.0148077 -0.673913
-0.0454822 0.0134762 -0.67211801
-0.045450602 0.0141674 -0.67076099
-0.045335501 0.0128308 -0.668975
-0.045304 0.0135203 -0.66762102
-0.0456471 0.023349799 -0.66816598
-0.0456152 0.0240469 -0.66679698
-0.0455832 0.024744 -0.66542798
-0.0455513 0.025441101 -0.66406
-0.0455194 0.026138199 -0.662691
-0.047412101 0.0058515999 -0.76642299
-0.0474636 0.0084955199 -0.76564097
-0.0474305 0.0092190104 -0.76422101
-0.047397301 0.0099425204 -0.76279998
-0.047364201 0.010666 -0.76138002
-0.047415301 0.0133184 -0.76058197
-0.047382101 0.0140436 -0.75915802
-0.047264799 0.0128365 -0.75711799
-0.047147799 0.0116259 -0.75508499
-0.0471147 0.0123477 -0.75366801
-0.047081701 0.0130695 -0.75225103
-0.047048599 0.0137913 -0.75083297
-0.0470156 0.0145131 -0.74941599
-0.046857201 0.0123211 -0.747105
-0.046824198 0.0130404 -0.74569303
-0.0467913 0.0137596 -0.74428099
-0.046758398 0.0144789 -0.74286902
-0.0467255 0.0151981 -0.74145597
-0.046692502 0.015917299 -0.740044
-0.0466596 0.016636601 -0.73863202
-0.046626698 0.0173558 -0.73721999
-0.046510801 0.016118901 -0.73523903
-0.046395101 0.0148786 -0.73326403
-0.046362299 0.0155944 -0.73185903
-0.046329498 0.0163102 -0.73045301
-0.0462141 0.0150631 -0.72849202
-0.046098899 0.0138126 -0.72653699
-0.046066299 0.014525 -0.72513902
-0.046033598 0.0152374 -0.72373998
-0.045918699 0.0139801 -0.72179902
-0.0458862 0.0146908 -0.72040302
-0.0458536 0.0154015 -0.71900803
-0.045738999 0.0141374 -0.71708
-0.045624498 0.0128698 -0.715159
-0.045592099 0.0135771 -0.71376997
-0.045477901 0.0123045 -0.71185899
-0.045445599 0.0130101 -0.71047401
-0.0454133 0.0137157 -0.70908803
-0.0452994 0.0124363 -0.70719099
-0.045267101 0.0131402 -0.70580798
-0.0452349 0.0138442 -0.70442599
-0.045202699 0.0145481 -0.703044
-0.045170501 0.015252 -0.701662
-0.045138199 0.015955901 -0.70028001
-0.045106001 0.0166598 -0.69889802
-0.0450738 0.017363699 -0.69751602
-0.044960599 0.0160689 -0.69564801
-0.044766601 0.0127703 -0.69330502
-0.044734601 0.0134691 -0.69193298
-0.044783302 0.0161718 -0.69103599
-0.044831902 0.018877801 -0.69013298
-0.044799801 0.019579999 -0.68875402
-0.0446871 0.0182733 -0.68690997
-0.044654999 0.018973799 -0.68553501
-0.044622999 0.019674299 -0.68415898
-0.044149298 0.0092976596 -0.68027902
-0.0441177 0.0099888202 -0.678922
-0.044086002 0.01068 -0.67756498
-0.044134401 0.0133903 -0.67665303
-0.044022702 0.0120623 -0.674851
-0.0439112 0.0107309 -0.67305499
-0.043879598 0.0114203 -0.67170203
-0.043768302 0.0100839 -0.66991597
-0.043736801 0.0107716 -0.66856599
-0.043705299 0.0114594 -0.66721499
-0.043832898 0.0162092 -0.66670901
-0.044079199 0.0240149 -0.66681701
-0.0440473 0.024712101 -0.66544801
-0.0440154 0.025409199 -0.66407901
-0.045821801 0.00581855 -0.76644301
-0.045788798 0.0065403502 -0.76502597
-0.045755699 0.0072621298 -0.76360899
-0.045722701 0.0079839202 -0.762191
-0.045689601 0.0087057203 -0.76077402
-0.045736998 0.0113564 -0.75997901
-0.045703899 0.0120799 -0.75855899
-0.0456708 0.0128034 -0.75713801
-0.045557398 0.0115929 -0.75510502
-0.0455244 0.0123147 -0.75368798
-0.045491301 0.0130365 -0.752271
-0.045458298 0.0137583 -0.75085402
-0.045305401 0.011569 -0.74853802
-0.045272499 0.0122882 -0.74712598
-0.045239601 0.0130074 -0.745713
-0.045206599 0.0137267 -0.74430102
-0.045173701 0.0144459 -0.74288899
-0.045140799 0.0151652 -0.74147701
-0.045107801 0.015884399 -0.74006402
-0.044995598 0.0146509 -0.73807698
-0.0449627 0.0153685 -0.73666799
-0.0448507 0.01413 -0.73469001
-0.044817898 0.0148458 -0.733284
-0.044706099 0.0136021 -0.73131597
-0.044673402 0.0143163 -0.72991401
-0.0445618 0.0130675 -0.727956
-0.0445292 0.01378 -0.72655702
-0.044417899 0.0125261 -0.72460997
-0.044385299 0.0132368 -0.72321397
-0.0442742 0.0119779 -0.72127599
-0.0442417 0.0126869 -0.71988398
-0.044209301 0.0133959 -0.71849197
-0.044176798 0.0141049 -0.71710002
-0.043909598 0.0088844998 -0.71412098
-0.0438774 0.0095884101 -0.71273899
-0.043845098 0.0102923 -0.711357
-0.043812901 0.0109963 -0.709975
-0.043702699 0.0097168302 -0.70807701
-0.043592699 0.00843406 -0.706186
-0.043560699 0.0091345701 -0.70481002
-0.043528602 0.0098350802 -0.703435
-0.043496501 0.0105356 -0.70205998
-0.0434644 0.0112361 -0.70068401
-0.0434324 0.0119366 -0.69930899
-0.043400299 0.0126371 -0.69793302
-0.043368202 0.0133376 -0.696558
-0.043258902 0.0120395 -0.69469702
-0.043149699 0.010738 -0.69284302
-0.043194901 0.0134371 -0.691953
-0.043239899 0.016139699 -0.69105601
-0.0432848 0.018845599 -0.690153
-0.043252598 0.0195478 -0.68877399
-0.042567901 0.0031749499 -0.68343902
-0.0425364 0.0038626899 -0.68208897
-0.043079499 0.0196422 -0.68417901
-0.042550001 0.0072520999 -0.67984301
-0.042594898 0.0099571599 -0.67894202
-0.042486802 0.0086309901 -0.677136
-0.042455301 0.0093204398 -0.67578202
-0.042423699 0.0100099 -0.67442799
-0.042316001 0.0086768996 -0.67263597
-0.0422845 0.0093646599 -0.67128599
-0.042252999 0.0100524 -0.66993499
-0.042145599 0.0087125497 -0.66815603
-0.04219 0.0114279 -0.66723502
-0.042158499 0.0121156 -0.66588402
-0.0422027 0.014836 -0.66495198
-0.042171199 0.0155255 -0.66359901
-0.042290699 0.0202871 -0.66306901
-0.0422967 0.0219988 -0.66191298
-0.042264901 0.0226925 -0.66055101
-0.044115901 0.00290518 -0.765504
-0.044198502 0.0065072901 -0.765046
-0.044165399 0.0072290902 -0.76362902
-0.0441324 0.0079508796 -0.76221198
-0.044099301 0.0086726602 -0.76079398
-0.044066299 0.0093944604 -0.759377
-0.0440332 0.0101163 -0.75796002
-0.044000201 0.010838 -0.75654298
-0.0438524 0.0086590899 -0.75420702
-0.043819498 0.0093783299 -0.75279498
-0.0437866 0.0100976 -0.75138199
-0.043753698 0.0108168 -0.74997002
-0.0437207 0.011536 -0.74855798
-0.043611702 0.0103129 -0.74655002
-0.0436549 0.0129745 -0.74573302
-0.043621901 0.0136937 -0.74432099
-0.043589 0.014413 -0.74290901
-0.043523099 0.0158515 -0.74008501
-0.0434146 0.0146181 -0.73809701
-0.043381799 0.0153356 -0.73668802
-0.043198001 0.0121412 -0.73414099
-0.0431653 0.0128553 -0.73273897
-0.043132599 0.0135694 -0.731336
-0.0430247 0.0123225 -0.729375
-0.0429921 0.0130349 -0.72797602
-0.042884499 0.0117828 -0.72602499
-0.042776901 0.0105274 -0.72408098
-0.042669602 0.0092684403 -0.72214299
-0.042637199 0.0099757696 -0.72075403
-0.0426048 0.0106831 -0.719365
-0.042572401 0.0113904 -0.71797597
-0.042465501 0.010123 -0.71605498
-0.0423587 0.0088522704 -0.71414101
-0.042326398 0.0095561799 -0.71275902
-0.042294201 0.0102601 -0.71137601
-0.042187698 0.00898246 -0.70947498
-0.042155601 0.0096846698 -0.70809698
-0.0420493 0.0084019797 -0.70620602
-0.042017199 0.0091025 -0.70482999
-0.041985098 0.0098030102 -0.70345497
-0.041953102 0.0105035 -0.702079
-0.041921001 0.011204 -0.70070398
-0.0418889 0.0119046 -0.69932801
-0.041856799 0.0126051 -0.69795299
-0.041751198 0.0113087 -0.69608903
-0.041719198 0.0120075 -0.69471598
-0.041613799 0.0107061 -0.69286197
-0.041655201 0.0134051 -0.69197202
-0.0416965 0.0161076 -0.69107598
-0.041115601 0.00176796 -0.68615901
-0.0410841 0.00245572 -0.68480903
-0.041052599 0.00314346 -0.68345797
-0.041021101 0.0038312001 -0.68210799
-0.0410625 0.00653109 -0.681216
-0.041030899 0.00722053 -0.67986298
-0.040999401 0.0079099704 -0.678509
-0.040895201 0.0065821698 -0.67670602
-0.0408637 0.0072699198 -0.67535597
-0.040832199 0.0079576699 -0.67400599
-0.040800702 0.00864542 -0.67265499
-0.040769201 0.0093331505 -0.671305
-0.0406655 0.00799507 -0.669523
-0.040634099 0.0086811204 -0.668176
-0.040602699 0.0093671596 -0.66682899
-0.0406432 0.0120841 -0.66590297
-0.040683702 0.0148044 -0.66497201
-0.0406521 0.0154939 -0.66361803
-0.040764101 0.0202554 -0.66308802
-0.040768199 0.021966999 -0.66193199
-0.0407007 0.0216411 -0.66036701
-0.040668901 0.0223339 -0.65900701
-0.040637199 0.023026699 -0.65764701
-0.0425312 0.0028722601 -0.76552498
-0.042498302 0.00359149 -0.764112
-0.042465299 0.0043107299 -0.76270002
-0.042432401 0.0050299698 -0.76128799
-0.0423995 0.0057492 -0.75987601
-0.042366602 0.0064684302 -0.75846398
-0.042333599 0.0071876799 -0.75705099
-0.042300701 0.00790691 -0.75563902
-0.0421951 0.0066923401 -0.75361401
-0.042162199 0.0074098702 -0.75220501
-0.042129401 0.00812741 -0.75079697
-0.042096499 0.00884494 -0.74938798
-0.041846499 0.00374072 -0.74618101
-0.041813899 0.0044531599 -0.74478197
-0.041636799 0.0012775901 -0.742199
-0.0420372 0.0136608 -0.74434102
-0.042004298 0.0143801 -0.74292898
-0.041624598 0.0121085 -0.73416102
-0.041591901 0.0128226 -0.732759
-0.041487701 0.0115774 -0.73079401
-0.041455101 0.0122899 -0.72939497
-0.041351099 0.0110395 -0.72744101
-0.0412472 0.0097858701 -0.72549301
-0.041143499 0.0085287401 -0.72355098
-0.041111201 0.0092360601 -0.72216302
-0.041078798 0.00994338 -0.72077399
-0.0410464 0.0106507 -0.71938503
-0.040943101 0.0093851201 -0.71745998
-0.040910799 0.0100907 -0.716075
-0.040736999 0.00684366 -0.71363097
-0.040704802 0.0075458898 -0.71225297
-0.040602099 0.00626837 -0.710352
-0.040569998 0.0069688899 -0.70897597
-0.040537901 0.0076694 -0.70760101
-0.0404355 0.0063850302 -0.70571297
-0.0404035 0.0070838402 -0.70434099
-0.0403715 0.0077826502 -0.70296901
-0.0403395 0.0084814597 -0.70159698
-0.040237501 0.0071886298 -0.69972599
-0.040205501 0.0078857299 -0.69835699
-0.040173601 0.00858285 -0.69698799
-0.040071901 0.0072831502 -0.69512999
-0.039970301 0.0059801098 -0.69327903
-0.039764401 0.00167338 -0.69071198
-0.039732799 0.0023628499 -0.689358
-0.039631799 0.00104873 -0.68752903
-0.039600302 0.00173648 -0.68617803
-0.0395688 0.0024242201 -0.68482798
-0.039537299 0.0031119699 -0.683478
-0.039505798 0.00379972 -0.682127
-0.039474301 0.00448746 -0.68077701
-0.0394428 0.0051752101 -0.67942703
-0.039480299 0.0078784199 -0.67852801
-0.039379898 0.0065506902 -0.67672598
-0.039348401 0.0072384402 -0.67537498
-0.0393169 0.0079261903 -0.674025
-0.039285399 0.0086139096 -0.67267501
-0.0391853 0.0072776298 -0.67088902
-0.0391539 0.0079636704 -0.66954201
-0.0391225 0.0086497199 -0.66819501
-0.039091099 0.0093357498 -0.666848
-0.039127901 0.0120526 -0.665923
-0.039096501 0.0127404 -0.664572
-0.039065 0.0134281 -0.66322201
-0.039169502 0.0181877 -0.662696
-0.039205801 0.020916499 -0.66174698
-0.039106201 0.01957 -0.65998203
-0.0390746 0.0202611 -0.65862501
-0.039042901 0.020952299 -0.65726697
-0.040946499 0.0028393299 -0.76554501
-0.040774599 -0.00028502301 -0.76286101
-0.040741801 0.00043081801 -0.761455
-0.040709101 0.0011466499 -0.76005
-0.040676299 0.00186248 -0.75864398
-0.040643498 0.00257831 -0.75723797
-0.0405416 0.00136382 -0.75521398
-0.0405089 0.0020779399 -0.753811
-0.040476199 0.0027920699 -0.75240898
-0.040443499 0.0035061999 -0.75100702
-0.040410802 0.0042203399 -0.749605
-0.040378101 0.0049344702 -0.74820298
-0.040276799 0.00370811 -0.74620098
-0.040244199 0.0044205398 -0.744802
-0.040074602 0.00124512 -0.74221802
-0.040042099 0.0019541499 -0.74082601
-0.039918002 0.0115448 -0.73081398
-0.039885402 0.0122573 -0.729415
-0.039785098 0.011007 -0.72746003
-0.039617501 0.00778904 -0.72496003
-0.039585099 0.0084963497 -0.723571
-0.039485302 0.0072359401 -0.72163701
-0.039520301 0.0099109896 -0.72079402
-0.039420702 0.0086471904 -0.71886599
-0.0393884 0.0093528097 -0.71748
-0.039356101 0.0100584 -0.71609497
-0.039189801 0.0068115098 -0.713651
-0.039157599 0.0075137299 -0.71227199
-0.0390587 0.0062362999 -0.71037102
-0.039026599 0.00693681 -0.708996
-0.038927801 0.00565422 -0.70710498
-0.038895801 0.0063530202 -0.705733
-0.0388638 0.0070518302 -0.70436001
-0.038765401 0.0057625002 -0.702483
-0.038733501 0.0064595998 -0.701114
-0.038635202 0.0051650899 -0.69924599
-0.038603399 0.0058605 -0.69788098
-0.0385716 0.0065559102 -0.69651502
-0.038473699 0.0052546398 -0.69466102
-0.038408902 0.0049491702 -0.69305599
-0.038245399 0.00164183 -0.69073099
-0.038213801 0.0023312799 -0.68937701
-0.0381165 0.00101725 -0.68754798
-0.038084999 0.00170499 -0.686198
-0.037987899 0.000385797 -0.68437803
-0.038022 0.00308048 -0.68349701
-0.037925102 0.00175788 -0.68168402
-0.037958998 0.0044559701 -0.68079603
-0.037927501 0.0051437099 -0.67944598
-0.0378961 0.00583146 -0.67809498
-0.037864599 0.0065192101 -0.676745
-0.037833098 0.0072069401 -0.67539501
-0.037736598 0.0058741402 -0.67360198
-0.037705202 0.0065601701 -0.67225498
-0.037609 0.0052223201 -0.67047298
-0.037642401 0.0079322597 -0.66956103
-0.037611 0.0086183101 -0.66821402
-0.0375796 0.0093043502 -0.66686702
-0.037548099 0.0099903997 -0.66552001
-0.037581202 0.0127089 -0.66459203
-0.037549701 0.0133966 -0.66324103
-0.0376467 0.018155999 -0.66271502
-0.037615102 0.018847199 -0.661358
-0.0375834 0.0195383 -0.66000098
-0.037487701 0.018188599 -0.65824199
-0.0374562 0.018878 -0.65688801
-0.039361801 0.0028063999 -0.76556498
-0.039131701 -0.00223953 -0.762245
-0.039099 -0.00152541 -0.76084203
-0.0390663 -0.00081127201 -0.75944
-0.039033599 -9.71513e-005 -0.75803798
-0.039000899 0.000616982 -0.75663602
-0.038968202 0.00133112 -0.755234
-0.038935501 0.00204525 -0.75383103
-0.038902801 0.00275938 -0.75242901
-0.0388701 0.0034735 -0.75102699
-0.0387724 0.00225064 -0.74901903
-0.0387397 0.00296306 -0.74761999
-0.038642202 0.00173502 -0.74562198
-0.038609698 0.0024457499 -0.74422598
-0.0384477 -0.000731209 -0.74164599
-0.038479999 0.00192169 -0.74084598
-0.038447499 0.0026306999 -0.73945397
-0.0383505 0.0013907501 -0.73747897
-0.038318101 0.00209807 -0.73609
-0.038059101 0.0077566402 -0.72498
-0.038026702 0.0084639601 -0.72359103
-0.037930701 0.00720364 -0.72165602
-0.0379619 0.0098786103 -0.72081298
-0.037866 0.0086148903 -0.718885
-0.037833702 0.0093205003 -0.71749997
-0.0377381 0.0080516702 -0.71558201
-0.037642598 0.0067793699 -0.71367103
-0.037547302 0.0055037201 -0.711766
-0.037452102 0.00422461 -0.70986801
-0.037420101 0.00492342 -0.70849597
-0.037388101 0.0056222398 -0.70712399
-0.0372933 0.0043363702 -0.70524001
-0.0372614 0.00503348 -0.70387101
-0.0371667 0.0037424399 -0.70199698
-0.037134901 0.0044378601 -0.70063102
-0.037040502 0.0031417899 -0.69876701
-0.0370088 0.00383549 -0.69740498
-0.036945801 0.0035317501 -0.69579601
-0.036851801 0.0022279599 -0.69394702
-0.036757901 0.00092081499 -0.69210398
-0.0367263 0.00161026 -0.69075
-0.036632702 0.00029801301 -0.68891799
-0.036601201 0.00098575896 -0.687567
-0.0365078 -0.00033165701 -0.685745
-0.0364764 0.00035439199 -0.684398
-0.036506701 0.0030489999 -0.68351603
-0.036413498 0.00172648 -0.68170398
-0.036443699 0.00442449 -0.68081599
-0.036350701 0.00309855 -0.67900997
-0.036380701 0.0057999701 -0.67811501
-0.0362879 0.0044706399 -0.67631501
-0.0362565 0.00515668 -0.674968
-0.036163799 0.0038223099 -0.67317897
-0.0361325 0.0045066499 -0.67183602
-0.036040101 0.0031671 -0.67005599
-0.036069799 0.0058753202 -0.66914803
-0.036038499 0.0065596602 -0.667804
-0.036007199 0.00724401 -0.66646099
-0.035975799 0.00792835 -0.66511703
-0.036065899 0.0126774 -0.66461098
-0.036034402 0.0133651 -0.663261
-0.036123902 0.0181244 -0.66273397
-0.0360923 0.018815501 -0.66137701
-0.0360003 0.017467501 -0.65961498
-0.035968699 0.018157 -0.658261
-0.035937101 0.0188464 -0.65690702
-0.0359056 0.019535899 -0.655554
-0.035874002 0.0202253 -0.65420002
-0.037377499 -0.0147029 -0.76462603
-0.037345201 -0.0139972 -0.76323998
-0.037528899 -0.0049062702 -0.76302701
-0.037558202 -0.0022722301 -0.76226503
-0.037525501 -0.00155811 -0.76086199
-0.037431002 -0.0027689801 -0.75883102
-0.037398402 -0.00205655 -0.75743198
-0.037365802 -0.00134413 -0.756033
-0.037333101 -0.00063170202 -0.75463402
-0.037300501 8.0723803e-005 -0.75323498
-0.037267901 0.00079314999 -0.75183702
-0.037235301 0.00150559 -0.75043797
-0.037202701 0.0022180099 -0.74903899
-0.037108801 0.00099175598 -0.74703699
-0.0370152 -0.00023784301 -0.74504298
-0.036921602 -0.00147092 -0.74305397
-0.0368893 -0.00076359202 -0.74166602
-0.036856901 -5.6266501e-005 -0.74027699
-0.036824498 0.00065104698 -0.73888803
-0.0367314 -0.00059046998 -0.73691601
-0.036759701 0.00206569 -0.73610997
-0.036727302 0.0027730099 -0.734721
-0.0364682 0.0084315697 -0.723611
-0.036435898 0.0091388999 -0.72222197
-0.0364035 0.00984623 -0.720833
-0.036191899 0.0046405699 -0.71782702
-0.036159702 0.0053427801 -0.71644801
-0.036127601 0.0060450002 -0.715069
-0.036035899 0.0047711302 -0.71316099
-0.035944398 0.0034938001 -0.71126002
-0.035853099 0.00221312 -0.70936602
-0.035821199 0.0029102401 -0.70799702
-0.0357893 0.0036073399 -0.70662802
-0.035698202 0.00231981 -0.70474702
-0.035666399 0.0030151999 -0.703381
-0.0356346 0.0037106101 -0.702016
-0.035543799 0.0024163099 -0.70014799
-0.035482701 0.0021143199 -0.69853699
-0.035450999 0.0028071699 -0.69717598
-0.0354192 0.0035000099 -0.69581598
-0.035211802 -0.00179671 -0.69298798
-0.0351803 -0.00110897 -0.69163799
-0.0351489 -0.00042122501 -0.69028699
-0.035059001 -0.00173515 -0.68845803
-0.035027601 -0.00104911 -0.68711102
-0.0349962 -0.00036306199 -0.68576401
-0.0349648 0.00032297499 -0.68441701
-0.034933399 0.00100901 -0.68307
-0.034901999 0.0016950601 -0.681723
-0.034870598 0.0023811001 -0.68037599
-0.0347814 0.00105361 -0.67857301
-0.03475 0.00173795 -0.67722899
-0.0347187 0.0024222999 -0.67588598
-0.034629799 0.0010879399 -0.674097
-0.0345986 0.0017705699 -0.67275602
-0.034509901 0.00043117601 -0.670977
-0.034478702 0.0011121 -0.66964
-0.034447599 0.00179303 -0.66830301
-0.034473501 0.0045011202 -0.667395
-0.034385201 0.0031549099 -0.66562903
-0.034467999 0.0078970203 -0.66513598
-0.034436699 0.0085813496 -0.66379303
-0.034512799 0.016746501 -0.66098797
-0.034424599 0.0153969 -0.65922898
-0.034393098 0.0160846 -0.65787798
-0.034361601 0.016772401 -0.656528
-0.0340482 0.00723908 -0.65319997
-0.034242298 0.016101999 -0.65343499
-0.033901699 0.0055261902 -0.64995003
-0.033870701 0.00620287 -0.64862102
-0.033839699 0.0068795499 -0.64729297
-0.033752799 0.0055034901 -0.645585
-0.033721901 0.0061784601 -0.64425999
-0.035822801 -0.0147352 -0.76464599
-0.035849001 -0.0121131 -0.763906
-0.035875 -0.0094876196 -0.76315999
-0.035900898 -0.0068587698 -0.76240802
-0.035926599 -0.0042264699 -0.761648
-0.035893898 -0.00351403 -0.76024997
-0.035861298 -0.0028015999 -0.75885099
-0.035828698 -0.0020891801 -0.75745201
-0.035796098 -0.0013767401 -0.75605297
-0.035763498 -0.00066431402 -0.75465399
-0.035673101 -0.00188369 -0.752639
-0.0356405 -0.00117297 -0.75124401
-0.035608001 -0.000462228 -0.74984801
-0.035575401 0.00024848999 -0.74845302
-0.035485402 -0.00097933505 -0.74645501
-0.0353956 -0.0022106201 -0.74446303
-0.035305899 -0.00344525 -0.74247801
-0.0352736 -0.0027396299 -0.74109298
-0.035241298 -0.0020340099 -0.73970699
-0.035209 -0.0013284 -0.73832202
-0.035176702 -0.00062277698 -0.73693597
-0.035087399 -0.0018676301 -0.73497099
-0.035055202 -0.00116371 -0.73358899
-0.034644701 0.0046084099 -0.71784699
-0.0346126 0.00531063 -0.71646798
-0.034580398 0.0060128402 -0.71508902
-0.034325302 -0.0011890701 -0.71159297
-0.034293398 -0.000493659 -0.71022803
-0.034205999 -0.00177767 -0.70833999
-0.0341742 -0.0010839601 -0.70697802
-0.0341979 0.00159255 -0.70613199
-0.034110699 0.000303443 -0.70425397
-0.034134202 0.0029833601 -0.70340103
-0.034047201 0.00169085 -0.70152998
-0.033987898 0.00138975 -0.69991601
-0.033901099 9.1217502e-005 -0.698057
-0.033814501 -0.00121066 -0.69620401
-0.033728 -0.00251595 -0.69435799
-0.0336417 -0.0038246899 -0.692518
-0.033610299 -0.00313864 -0.69117099
-0.033578899 -0.0024526 -0.68982399
-0.0334929 -0.0037680999 -0.687998
-0.033461601 -0.0030837599 -0.68665498
-0.0334302 -0.0023994099 -0.68531102
-0.0333989 -0.00171508 -0.68396699
-0.0333133 -0.00303914 -0.68215799
-0.033282001 -0.0023565099 -0.68081701
-0.033250801 -0.00167387 -0.67947698
-0.0331655 -0.0030046799 -0.67768103
-0.0331343 -0.0023237499 -0.67634398
-0.033103101 -0.0016428099 -0.67500699
-0.033071999 -0.00096187601 -0.67366999
-0.033040799 -0.00028094999 -0.672333
-0.032956 -0.0016220401 -0.67055702
-0.032924902 -0.00094279699 -0.66922301
-0.032947298 0.00176185 -0.66832203
-0.032916099 0.0024428 -0.66698498
-0.0328849 0.00312373 -0.66564798
-0.0328537 0.0038046499 -0.66431099
-0.032940801 0.0146777 -0.66059798
-0.032856401 0.0133264 -0.65884298
-0.032825001 0.0140124 -0.65749502
-0.0327936 0.0146984 -0.65614802
-0.0327622 0.0153845 -0.65480101
-0.032730799 0.0160705 -0.65345401
-0.0324632 0.0075427098 -0.65035802
-0.032379799 0.0061718901 -0.64863998
-0.0323488 0.00684857 -0.64731199
-0.0322656 0.0054725702 -0.64560401
-0.032234699 0.0061475402 -0.644279
-0.0342681 -0.0147675 -0.76466501
-0.034290601 -0.0121455 -0.76392603
-0.0343128 -0.0095200799 -0.76318002
-0.0342803 -0.0088110603 -0.76178801
-0.034302399 -0.0061805798 -0.76103199
-0.034269799 -0.00546986 -0.759637
-0.034237299 -0.0047591398 -0.758241
-0.0342048 -0.0040484001 -0.75684601
-0.0341722 -0.0033376799 -0.75545001
-0.0341397 -0.0026269599 -0.75405502
-0.034053098 -0.0038479001 -0.75204301
-0.034020599 -0.00313886 -0.750651
-0.0339882 -0.0024298499 -0.749259
-0.033955701 -0.00172082 -0.74786699
-0.033869501 -0.00295033 -0.74587202
-0.033783499 -0.0041831899 -0.74388301
-0.033751201 -0.0034775599 -0.74249798
-0.033718899 -0.0027719401 -0.74111199
-0.033686601 -0.00206632 -0.73972702
-0.033601001 -0.0033076999 -0.737755
-0.033568699 -0.00260377 -0.73637301
-0.033536501 -0.00189986 -0.73499101
-0.0335043 -0.00119594 -0.73360902
-0.033419002 -0.0024458801 -0.73165399
-0.033386901 -0.00174366 -0.73027498
-0.0333547 -0.00104146 -0.72889698
-0.0332698 -0.00229814 -0.726955
-0.033237699 -0.00159762 -0.72557998
-0.032793101 -0.0012209 -0.711613
-0.032709301 -0.0025031201 -0.70972198
-0.032677598 -0.00180943 -0.70836002
-0.032645799 -0.00111572 -0.70699698
-0.032614 -0.000422015 -0.70563501
-0.032582302 0.00027168301 -0.70427299
-0.032550499 0.00096538302 -0.70291102
-0.032390099 -0.00331057 -0.70028502
-0.0323072 -0.00461066 -0.69842798
-0.032275699 -0.0039229202 -0.69707799
-0.032193001 -0.00522818 -0.69523197
-0.032161601 -0.00454213 -0.69388503
-0.0321302 -0.0038560999 -0.69253802
-0.0320988 -0.00317006 -0.69119102
-0.0320164 -0.0044837701 -0.68936098
-0.0319851 -0.0037994301 -0.68801701
-0.031902999 -0.00511831 -0.686198
-0.031871799 -0.0044356701 -0.68485802
-0.031840499 -0.00375304 -0.68351698
-0.0317587 -0.0050786701 -0.68171102
-0.031727601 -0.0043977299 -0.68037403
-0.031696402 -0.0037167899 -0.67903697
-0.0316149 -0.0050492901 -0.67724401
-0.031583801 -0.0043700598 -0.67591101
-0.031552698 -0.00369083 -0.674577
-0.0315216 -0.0030116001 -0.67324299
-0.031490501 -0.00233237 -0.67190999
-0.031434499 -0.0026640799 -0.67035699
-0.0314283 -0.000973897 -0.66924202
-0.031397201 -0.00029466601 -0.66790903
-0.031366099 0.000384563 -0.66657501
-0.031335 0.00106381 -0.665241
-0.031474698 0.0166834 -0.66102701
-0.031394001 0.0153339 -0.65926701
-0.0313625 0.016021701 -0.65791702
-0.031330999 0.0167094 -0.65656698
-0.031299502 0.0173971 -0.65521598
-0.031219199 0.0160391 -0.65347397
-0.030968601 0.00751164 -0.65037698
-0.0308889 0.0061408998 -0.64865899
-0.0308579 0.0068175802 -0.647331
-0.030778401 0.0054416698 -0.64562303
-0.030747499 0.0061166501 -0.64429802
-0.0307166 0.00679162 -0.64297199
-0.032732099 -0.0121779 -0.763946
-0.032750599 -0.0095525496 -0.76319999
-0.0327182 -0.0088435197 -0.76180798
-0.032736398 -0.00621313 -0.76105201
-0.032653201 -0.0074254801 -0.75902402
-0.032671399 -0.0047916798 -0.75826102
-0.032588299 -0.0060074301 -0.756239
-0.0325558 -0.0052983998 -0.75484699
-0.032523401 -0.00458939 -0.75345498
-0.032440599 -0.005812 -0.75144702
-0.032408301 -0.0051046899 -0.750058
-0.032375898 -0.0043973601 -0.74866903
-0.032343499 -0.00369003 -0.74728
-0.0322611 -0.0049211099 -0.74528903
-0.032228801 -0.0042154901 -0.74390298
-0.032196499 -0.00350988 -0.74251801
-0.032114498 -0.0047477498 -0.74053901
-0.032082301 -0.0040438399 -0.73915702
-0.032049999 -0.00333992 -0.73777503
-0.032017801 -0.002636 -0.73639297
-0.031936198 -0.0038824501 -0.73443198
-0.0318547 -0.00513225 -0.73247701
-0.031773299 -0.0063855201 -0.730528
-0.031790499 -0.00373123 -0.72972602
-0.031758402 -0.0030307199 -0.72834998
-0.031726401 -0.0023302101 -0.72697502
-0.0316943 -0.0016297 -0.72559899
-0.0311403 -0.0061924201 -0.71030903
-0.031108599 -0.0055012698 -0.70895201
-0.031076999 -0.00481012 -0.70759499
-0.0310454 -0.0041189701 -0.70623797
-0.031013699 -0.00342782 -0.70488101
-0.0308864 -0.00670538 -0.70249897
-0.030854899 -0.00601765 -0.70114797
-0.0307757 -0.0073177102 -0.699292
-0.030744299 -0.0066316798 -0.697945
-0.0307128 -0.0059456402 -0.69659799
-0.030634001 -0.0072524501 -0.69475502
-0.0306026 -0.0065681199 -0.69341099
-0.030571301 -0.0058837798 -0.69206798
-0.030540001 -0.0051994398 -0.69072402
-0.030461499 -0.0065148398 -0.68889803
-0.0304302 -0.0058322102 -0.68755698
-0.030352 -0.00715265 -0.68574101
-0.030320801 -0.0064717098 -0.68440402
-0.0302896 -0.0057907798 -0.68306702
-0.0302117 -0.0071180901 -0.68126398
-0.0301806 -0.0064388602 -0.67993098
-0.030149501 -0.0057596299 -0.67859697
-0.0300951 -0.0060870401 -0.67703599
-0.0300641 -0.00540866 -0.675704
-0.030033 -0.00473028 -0.67437202
-0.030001899 -0.0040519 -0.67303997
-0.0299247 -0.0053936201 -0.67126501
-0.0298937 -0.0047169402 -0.66993701
-0.0299088 -0.0020167599 -0.66904402
-0.0298777 -0.00133838 -0.66771197
-0.029869599 0.00035346299 -0.66659403
-0.029838501 0.00103271 -0.66526002
-0.029955599 0.0166518 -0.66104603
-0.0298333 0.0132635 -0.65888101
-0.0298019 0.0139496 -0.657534
-0.029770499 0.0146356 -0.656187
-0.0297391 0.0153217 -0.65483999
-0.0295725 0.0098707303 -0.65231597
-0.0294964 0.0085042501 -0.65059
-0.0294428 0.0081589799 -0.649064
-0.0294118 0.00883736 -0.64773202
-0.029336 0.0074632801 -0.64602101
-0.0292603 0.0060857502 -0.64431697
-0.029229401 0.0067607202 -0.64299101
-0.0311737 -0.0122103 -0.76396602
-0.0311884 -0.0095850099 -0.76322001
-0.031156 -0.00887598 -0.76182801
-0.0311705 -0.0062456601 -0.76107198
-0.0310911 -0.0074579399 -0.75904399
-0.0310586 -0.0067489101 -0.75765198
-0.030979401 -0.0079663498 -0.755633
-0.030947 -0.0072590201 -0.75424403
-0.030914599 -0.00655171 -0.752855
-0.0308822 -0.0058443798 -0.75146699
-0.030803399 -0.0070702699 -0.74946499
-0.030771101 -0.0063646599 -0.748079
-0.030738801 -0.0056590401 -0.74669403
-0.030706501 -0.0049534198 -0.74530798
-0.030627999 -0.0061878199 -0.74332303
-0.0305958 -0.0054839002 -0.74194098
-0.0305636 -0.0047799801 -0.74055898
-0.0305313 -0.0040760702 -0.73917699
-0.0304533 -0.0053190398 -0.73720902
-0.030421101 -0.0046168198 -0.73583001
-0.0303433 -0.00586484 -0.733872
-0.030220101 -0.00906826 -0.73134398
-0.030188199 -0.0083711399 -0.72997499
-0.030156201 -0.0076740398 -0.72860599
-0.030124299 -0.0069769402 -0.727238
-0.030137699 -0.0043210899 -0.72643203
-0.030105701 -0.00362228 -0.72505999
-0.030118801 -0.00096124999 -0.724244
-0.0299516 -0.0061524101 -0.72121
-0.029919799 -0.0054570199 -0.71984398
-0.0296175 -0.00622406 -0.710329
-0.029585799 -0.0055329199 -0.70897198
-0.029554199 -0.00484177 -0.707614
-0.029522499 -0.0041506202 -0.70625699
-0.029446701 -0.00544204 -0.70438403
-0.029326901 -0.0087212203 -0.70200503
-0.0292955 -0.0080351802 -0.70065802
-0.0292641 -0.0073491302 -0.69931102
-0.029232699 -0.0066630901 -0.69796401
-0.029157501 -0.0079681398 -0.696118
-0.029126201 -0.00728379 -0.69477397
-0.0290948 -0.0065994598 -0.69343102
-0.0290635 -0.0059151198 -0.69208699
-0.0289887 -0.0072287298 -0.69025701
-0.0289574 -0.0065461099 -0.68891698
-0.0288829 -0.0078647602 -0.68709701
-0.0288084 -0.0091869002 -0.68528402
-0.028777299 -0.0085076503 -0.68395102
-0.028746201 -0.00782842 -0.68261701
-0.0287151 -0.0071491902 -0.68128401
-0.028684 -0.0064699599 -0.67995
-0.028631501 -0.0067964802 -0.67838699
-0.0286004 -0.0061181099 -0.677055
-0.028526699 -0.00745465 -0.67527002
-0.028495699 -0.0067779701 -0.67394102
-0.028464699 -0.0061012902 -0.67261302
-0.0283913 -0.0074447002 -0.67084199
-0.0283604 -0.0067697102 -0.66951603
-0.0283718 -0.0040712599 -0.66862702
-0.0283408 -0.00339456 -0.66729802
-0.0283098 -0.0027178801 -0.66597003
-0.028321801 0.0132321 -0.65890002
-0.0282073 0.0098371897 -0.65674901
-0.028176101 0.0105198 -0.65540802
-0.0281034 0.0091586104 -0.65367198
-0.0280309 0.0077939299 -0.65194303
-0.0279998 0.0084731504 -0.65060902
-0.027948201 0.0081278998 -0.64908302
-0.027876001 0.00675563 -0.64736801
-0.027804101 0.00537985 -0.645661
-0.0277732 0.0060548498 -0.64433599
-0.0277014 0.00467405 -0.64263803
-0.0276706 0.0053473199 -0.641316
-0.029658699 -0.0103265 -0.76463199
-0.029626301 -0.0096174702 -0.76323998
-0.029593799 -0.0089084497 -0.76184797
-0.0295613 -0.0081994301 -0.76045603
-0.029528899 -0.00749041 -0.75906402
-0.0294533 -0.0087060602 -0.75704199
-0.029420899 -0.0079987301 -0.75565302
-0.029388599 -0.0072914101 -0.754264
-0.0293133 -0.0085138204 -0.75225598
-0.029281 -0.0078082001 -0.75086999
-0.029163299 -0.0109689 -0.74825901
-0.0291312 -0.0102667 -0.74687999
-0.029099001 -0.0095644696 -0.74550098
-0.0290669 -0.0088622598 -0.74412203
-0.028992301 -0.0101 -0.74214399
-0.028960301 -0.0093994699 -0.74076903
-0.0289282 -0.0086989598 -0.739393
-0.028853999 -0.0099435598 -0.73742801
-0.028821999 -0.0092447503 -0.73605603
-0.028790001 -0.0085459398 -0.73468399
-0.0287161 -0.00979729 -0.732732
-0.0286841 -0.0091001801 -0.73136401
-0.0286522 -0.0084030703 -0.72999501
-0.028620301 -0.0077059502 -0.72862601
-0.028588399 -0.0070088501 -0.72725701
-0.028597999 -0.0043530902 -0.72645098
-0.028565999 -0.00365428 -0.725079
-0.028534001 -0.00295547 -0.72370702
-0.028543301 -0.00029282001 -0.72288799
-0.0285112 0.00040769801 -0.72151202
-0.0280947 -0.00625571 -0.71034801
-0.028062999 -0.0055645602 -0.70899099
-0.028031399 -0.0048734099 -0.70763397
-0.0279592 -0.0061630602 -0.70575702
-0.027806399 -0.0114212 -0.702856
-0.027775001 -0.0107368 -0.70151198
-0.027743701 -0.0100525 -0.70016801
-0.027712399 -0.0093681496 -0.698825
-0.027681001 -0.00868381 -0.69748098
-0.027649701 -0.0079994602 -0.69613701
-0.0275784 -0.0093078902 -0.69429702
-0.027547199 -0.0086252596 -0.69295698
-0.027515899 -0.00794263 -0.69161701
-0.027444899 -0.0092578102 -0.68979102
-0.0274137 -0.0085768802 -0.68845302
-0.027342999 -0.0098972302 -0.68663698
-0.027311901 -0.0092179999 -0.68530399
-0.0272808 -0.00853875 -0.68396997
-0.027249699 -0.0078595197 -0.68263602
-0.027199 -0.00818431 -0.68107003
-0.0271679 -0.00750593 -0.67973799
-0.027136801 -0.0068275402 -0.678406
-0.0270667 -0.0081623103 -0.67661798
-0.027035801 -0.0074856202 -0.67528898
-0.027004801 -0.0068089399 -0.67396098
-0.026935 -0.0081505803 -0.67218602
-0.026904101 -0.0074755899 -0.67086101
-0.026873199 -0.0068006199 -0.66953498
-0.0268423 -0.0061256499 -0.66821003
-0.026849899 -0.0034255499 -0.66731697
-0.026818899 -0.0027488701 -0.66598898
-0.0267033 0.0098059401 -0.65676802
-0.0267851 0.016614901 -0.65662497
-0.026715999 0.0152588 -0.65487802
-0.0265719 0.0098083802 -0.652354
-0.0265033 0.0084420498 -0.65062797
-0.026416101 0.0060479501 -0.64871597
-0.026385101 0.00672463 -0.64738798
-0.0263169 0.0053489599 -0.64568001
-0.026286 0.0060239299 -0.644355
-0.026218001 0.0046432102 -0.64265698
-0.0261872 0.0053164898 -0.64133501
-0.028129 -0.011068 -0.76604402
-0.0280568 -0.012275 -0.76400602
-0.0280244 -0.0115677 -0.76261699
-0.027992001 -0.0108604 -0.76122802
-0.027959701 -0.0101531 -0.759839
-0.027887899 -0.0113686 -0.75781697
-0.027816201 -0.0125875 -0.75580198
-0.027783999 -0.0118836 -0.75441998
-0.0277518 -0.0111797 -0.75303799
-0.027680401 -0.0124055 -0.75103599
-0.0276483 -0.0117033 -0.74965698
-0.0276161 -0.0110011 -0.74827802
-0.0275451 -0.0122336 -0.74629003
-0.027512999 -0.0115331 -0.74491501
-0.027481001 -0.0108326 -0.74353898
-0.0274489 -0.0101321 -0.74216402
-0.0273783 -0.0113732 -0.740192
-0.0273463 -0.0106744 -0.73882002
-0.0273143 -0.0099755498 -0.73744798
-0.027244 -0.0112234 -0.73548901
-0.027212 -0.0105263 -0.73412102
-0.0271801 -0.0098291999 -0.73275203
-0.0271101 -0.0110839 -0.73080701
-0.027116301 -0.0084349802 -0.73001403
-0.027084401 -0.0077378801 -0.72864598
-0.027052499 -0.00704078 -0.72727698
-0.0270583 -0.0043850802 -0.72647101
-0.027026299 -0.00368627 -0.72509903
-0.026994299 -0.00298746 -0.72372699
-0.026962301 -0.00228865 -0.72235501
-0.026930301 -0.00158983 -0.72098202
-0.0267544 -0.00609869 -0.71661001
-0.026722699 -0.0054049902 -0.71524799
-0.0265349 -0.0082629696 -0.70983797
-0.0265033 -0.0075735198 -0.70848399
-0.0265086 -0.0049050599 -0.70765299
-0.026440199 -0.0061946302 -0.70577699
-0.026298599 -0.0114525 -0.70287502
-0.0262306 -0.0127523 -0.70101798
-0.026235901 -0.0100838 -0.70018703
-0.026168101 -0.0113871 -0.69833797
-0.0261732 -0.0087151499 -0.69749999
-0.026141901 -0.0080308104 -0.69615602
-0.0260744 -0.0093391603 -0.69431698
-0.0260431 -0.0086565102 -0.692976
-0.0260118 -0.0079738796 -0.69163603
-0.0259446 -0.0092889899 -0.68980998
-0.025913401 -0.0086080497 -0.68847299
-0.025846399 -0.0099283298 -0.686656
-0.025797499 -0.0102505 -0.685085
-0.025766401 -0.0095721399 -0.68375301
-0.0257353 -0.0088937599 -0.68242103
-0.0256688 -0.0102233 -0.68062299
-0.0256378 -0.0095466496 -0.67929399
-0.0256068 -0.0088699702 -0.67796499
-0.0255758 -0.0081932899 -0.67663699
-0.0255096 -0.00953143 -0.67485601
-0.0254787 -0.0088564605 -0.67352998
-0.0254128 -0.0101997 -0.67175901
-0.025381999 -0.0095263803 -0.67043698
-0.0253511 -0.0088531002 -0.66911501
-0.025285499 -0.0102032 -0.66735703
-0.0252374 -0.0105441 -0.66582203
-0.025172001 -0.0119 -0.66407597
-0.025141399 -0.011231 -0.662763
-0.025269801 0.0165835 -0.65664399
-0.0252383 0.0172712 -0.65529299
-0.0251392 0.0138681 -0.65315801
-0.0250405 0.0104581 -0.65103602
-0.024958801 0.0080657797 -0.64912099
-0.024927801 0.0087441597 -0.647789
-0.0247963 0.00326583 -0.64532
-0.024731999 0.00188515 -0.64362198
-0.024684601 0.0015289 -0.64211702
-0.0246539 0.00219961 -0.6408
-0.0265668 -0.0111004 -0.76606399
-0.0264624 -0.0142234 -0.76337898
-0.0263942 -0.0154354 -0.76134998
-0.0263978 -0.0128121 -0.76060802
-0.0263655 -0.0121065 -0.75922298
-0.0262975 -0.0133237 -0.757204
-0.0262297 -0.0145443 -0.75519198
-0.026197599 -0.0138421 -0.75381303
-0.0261654 -0.0131398 -0.75243503
-0.026133301 -0.0124376 -0.75105602
-0.0260658 -0.0136667 -0.74906099
-0.0260338 -0.0129662 -0.74768502
-0.026001699 -0.0122657 -0.74631
-0.0259696 -0.0115652 -0.74493402
-0.025937499 -0.0108646 -0.743559
-0.025870601 -0.012104 -0.741584
-0.0258386 -0.0114052 -0.74021202
-0.0258066 -0.0107064 -0.73883897
-0.025739999 -0.0119524 -0.73687798
-0.025707999 -0.0112553 -0.73550898
-0.0256761 -0.0105582 -0.73413998
-0.025609801 -0.0118112 -0.73219198
-0.025577901 -0.0111158 -0.73082602
-0.0255461 -0.0104204 -0.72946101
-0.025514301 -0.0097249597 -0.72809601
-0.025516501 -0.0070726899 -0.72729599
-0.0255186 -0.00441708 -0.72649002
-0.0254866 -0.00371827 -0.72511798
-0.025454599 -0.00301946 -0.723746
-0.025422599 -0.00232065 -0.72237402
-0.025390601 -0.0016218401 -0.72100198
-0.0252092 -0.0071148099 -0.71635801
-0.0251105 -0.0103629 -0.71391797
-0.025079001 -0.0096734203 -0.712565
-0.025047399 -0.0089839799 -0.71121103
-0.025015799 -0.0082945302 -0.70985699
-0.0249843 -0.0076050898 -0.70850402
-0.024919599 -0.0088945804 -0.70662701
-0.0248881 -0.0082068304 -0.70527703
-0.024757801 -0.0134662 -0.70237797
-0.024726599 -0.0127836 -0.701038
-0.0246953 -0.012101 -0.69969702
-0.0246641 -0.0114183 -0.69835699
-0.0246328 -0.0107357 -0.69701701
-0.024601599 -0.010053 -0.69567603
-0.024570299 -0.0093704099 -0.694336
-0.0245391 -0.0086877802 -0.69299501
-0.0245078 -0.0080051301 -0.69165498
-0.024444301 -0.0093201697 -0.68982899
-0.024381001 -0.0106387 -0.68800902
-0.0243499 -0.0099594304 -0.68667501
-0.024302799 -0.0102816 -0.68510401
-0.024271701 -0.0096031995 -0.68377203
