ply
format ascii 1.0
element vertex 1067
property float32 x
property float32 y
property float32 z
property uchar red
property uchar green
property uchar blue
end_header
198.188400 -218.007263 1268.000000 8 5 0
199.600357 -217.147614 1263.000000 31 30 25
201.154633 -216.459869 1259.000000 40 31 22
202.533524 -215.600220 1254.000000 42 29 20
204.711349 -215.600220 1254.000000 35 26 19
206.889099 -215.600220 1254.000000 35 27 24
208.233337 -214.740570 1249.000000 36 27 30
210.402390 -214.740570 1249.000000 35 26 29
212.571457 -214.740570 1249.000000 35 28 22
214.740601 -214.740570 1249.000000 36 27 18
216.909668 -214.740570 1249.000000 36 28 17
219.078812 -214.740570 1249.000000 36 28 17
220.539307 -214.052841 1245.000000 37 28 21
221.807053 -213.193207 1240.000000 38 27 23
223.960556 -213.193207 1240.000000 38 29 22
225.384598 -212.505493 1236.000000 40 31 22
227.531158 -212.505493 1236.000000 41 33 20
229.677658 -212.505493 1236.000000 39 32 16
231.824142 -212.505493 1236.000000 38 30 17
233.213516 -211.817780 1232.000000 37 30 20
235.353058 -211.817780 1232.000000 38 30 28
237.492691 -211.817780 1232.000000 39 29 28
239.632233 -211.817780 1232.000000 40 30 21
240.790543 -210.958130 1227.000000 42 29 20
242.921494 -210.958130 1227.000000 42 29 21
245.052353 -210.958130 1227.000000 44 29 22
246.377472 -210.270401 1223.000000 44 29 22
247.688614 -209.582672 1219.000000 45 28 20
249.805588 -209.582672 1219.000000 44 27 17
251.922623 -209.582672 1219.000000 44 26 16
254.039597 -209.582672 1219.000000 44 28 15
256.156647 -209.582672 1219.000000 41 24 14
257.214233 -208.723022 1214.000000 36 22 13
259.322510 -208.723022 1214.000000 36 23 17
261.430878 -208.723022 1214.000000 31 17 14
263.539154 -208.723022 1214.000000 31 20 18
265.647522 -208.723022 1214.000000 41 31 29
266.873566 -208.035309 1210.000000 34 25 26
268.974915 -208.035309 1210.000000 41 34 42
271.076324 -208.035309 1210.000000 48 38 47
272.274597 -207.347595 1206.000000 57 45 47
274.369049 -207.347595 1206.000000 66 51 46
275.546509 -206.659882 1202.000000 73 60 44
277.633911 -206.659882 1202.000000 59 46 30
279.721466 -206.659882 1202.000000 55 37 33
281.808899 -206.659882 1202.000000 51 34 40
283.896423 -206.659882 1202.000000 44 31 41
284.794220 -205.800217 1197.000000 41 27 42
286.873016 -205.800217 1197.000000 48 25 45
288.951843 -205.800217 1197.000000 44 25 45
292.246246 -206.659882 1202.000000 28 23 43
294.333801 -206.659882 1202.000000 121 118 129
297.407654 -207.347595 1206.000000 138 120 118
300.495422 -208.035309 1210.000000 144 119 114
303.597137 -208.723022 1214.000000 142 117 120
306.964508 -209.582672 1219.000000 141 116 122
310.095764 -210.270401 1223.000000 140 114 123
314.517273 -211.817780 1232.000000 141 115 126
317.684937 -212.505493 1236.000000 140 114 125
324.489227 -215.600220 1254.000000 138 112 123
330.313995 -218.007263 1268.000000 139 113 122
333.565094 -218.694962 1272.000000 141 116 122
337.093933 -219.554611 1277.000000 141 114 119
340.640198 -220.414261 1282.000000 141 115 118
345.273682 -221.961639 1291.000000 138 112 113
347.515686 -221.961639 1291.000000 136 110 111
353.821564 -224.540588 1306.000000 134 108 111
360.179474 -227.119537 1321.000000 126 100 103
365.217499 -228.838837 1331.000000 119 92 97
371.947144 -231.589706 1347.000000 119 94 100
377.342926 -233.480957 1358.000000 114 91 99
379.701355 -233.480957 1358.000000 114 91 99
383.466431 -234.340607 1363.000000 112 92 91
388.947327 -236.231827 1374.000000 111 91 90
392.757599 -237.091476 1379.000000 109 89 91
398.304504 -238.982727 1390.000000 108 87 94
402.448242 -240.014297 1396.000000 107 88 92
408.062836 -241.905518 1407.000000 108 89 91
189.380066 -220.209366 1268.000000 253 229 217
191.582123 -220.209366 1268.000000 181 156 126
193.784195 -220.209366 1268.000000 192 165 120
195.986343 -220.209366 1268.000000 43 24 0
198.188400 -220.209366 1268.000000 8 5 0
199.600357 -219.341049 1263.000000 30 29 24
201.154633 -218.646378 1259.000000 38 28 19
202.533524 -217.778046 1254.000000 41 26 19
204.711349 -217.778046 1254.000000 36 25 19
206.889099 -217.778046 1254.000000 36 26 24
208.233337 -216.909698 1249.000000 36 27 30
210.402390 -216.909698 1249.000000 34 28 30
212.571457 -216.909698 1249.000000 33 28 22
214.740601 -216.909698 1249.000000 34 27 17
216.909668 -216.909698 1249.000000 34 28 16
219.078812 -216.909698 1249.000000 35 29 17
221.247864 -216.909698 1249.000000 35 28 20
221.807053 -215.346695 1240.000000 37 28 21
223.960556 -215.346695 1240.000000 35 28 18
225.384598 -214.652054 1236.000000 36 30 18
227.531158 -214.652054 1236.000000 37 31 17
229.677658 -214.652054 1236.000000 38 32 16
231.824142 -214.652054 1236.000000 40 34 20
233.970718 -214.652054 1236.000000 40 36 25
235.353058 -213.957367 1232.000000 39 34 28
237.492691 -213.957367 1232.000000 38 31 25
239.632233 -213.957367 1232.000000 37 28 19
240.790543 -213.089035 1227.000000 38 28 16
242.921494 -213.089035 1227.000000 39 29 19
245.052353 -213.089035 1227.000000 41 28 19
246.377472 -212.394379 1223.000000 42 29 21
248.501373 -212.394379 1223.000000 43 28 21
249.805588 -211.699707 1219.000000 43 28 21
251.922623 -211.699707 1219.000000 44 27 20
254.039597 -211.699707 1219.000000 39 25 16
256.156647 -211.699707 1219.000000 39 25 14
257.214233 -210.831375 1214.000000 39 25 14
259.322510 -210.831375 1214.000000 38 25 16
261.430878 -210.831375 1214.000000 34 23 17
263.539154 -210.831375 1214.000000 34 24 23
265.647522 -210.831375 1214.000000 35 24 28
267.755798 -210.831375 1214.000000 26 16 25
268.974915 -210.136703 1210.000000 35 28 44
271.076324 -210.136703 1210.000000 33 25 40
272.274597 -209.442032 1206.000000 56 41 48
274.369049 -209.442032 1206.000000 49 29 30
276.463470 -209.442032 1206.000000 46 27 20
277.633911 -208.747375 1202.000000 44 25 21
279.721466 -208.747375 1202.000000 40 23 31
281.808899 -208.747375 1202.000000 40 23 39
283.896423 -208.747375 1202.000000 43 30 47
284.794220 -207.879028 1197.000000 38 23 42
286.873016 -207.879028 1197.000000 49 25 47
288.951843 -207.879028 1197.000000 58 35 61
292.246246 -208.747375 1202.000000 44 36 60
294.333801 -208.747375 1202.000000 128 121 139
297.407654 -209.442032 1206.000000 137 119 119
301.488800 -210.831375 1214.000000 143 119 115
304.847534 -211.699707 1219.000000 143 118 121
307.971771 -212.394379 1223.000000 142 117 123
310.095764 -212.394379 1223.000000 141 115 124
315.538452 -214.652054 1236.000000 141 115 126
319.998199 -216.215042 1245.000000 140 114 125
324.489227 -217.778046 1254.000000 139 113 124
330.313995 -220.209366 1268.000000 140 114 123
333.565094 -220.904053 1272.000000 142 117 123
337.093933 -221.772369 1277.000000 142 115 120
340.640198 -222.640701 1282.000000 142 116 119
345.273682 -224.203690 1291.000000 140 114 115
347.515686 -224.203690 1291.000000 139 113 114
355.176178 -227.677048 1311.000000 135 109 112
361.542755 -230.282043 1326.000000 125 99 102
366.589478 -232.018692 1336.000000 118 91 96
371.947144 -233.929047 1347.000000 119 94 100
377.342926 -235.839371 1358.000000 116 93 99
379.701355 -235.839371 1358.000000 114 93 98
384.873138 -237.576050 1368.000000 113 93 94
390.362701 -239.486374 1379.000000 111 91 93
394.466492 -240.528366 1385.000000 108 89 95
398.304504 -241.396698 1390.000000 108 88 97
402.448242 -242.438690 1396.000000 108 89 93
408.062836 -244.349045 1407.000000 109 90 92
189.380066 -222.411438 1268.000000 255 231 221
191.582123 -222.411438 1268.000000 178 152 125
193.784195 -222.411438 1268.000000 190 163 120
195.986343 -222.411438 1268.000000 44 22 0
198.188400 -222.411438 1268.000000 10 4 0
199.600357 -221.534409 1263.000000 30 26 23
201.793732 -221.534409 1263.000000 38 25 19
202.533524 -219.955795 1254.000000 42 25 18
203.895111 -219.078766 1249.000000 38 25 19
206.064178 -219.078766 1249.000000 38 27 25
209.066940 -219.955795 1254.000000 38 29 30
211.244675 -219.955795 1254.000000 36 30 30
213.422424 -219.955795 1254.000000 35 30 26
215.600250 -219.955795 1254.000000 34 30 21
216.909668 -219.078766 1249.000000 34 27 17
219.078812 -219.078766 1249.000000 34 27 17
219.653610 -217.500153 1240.000000 35 28 18
221.807053 -217.500153 1240.000000 36 29 21
223.238113 -216.798523 1236.000000 37 30 20
225.384598 -216.798523 1236.000000 37 31 19
227.531158 -216.798523 1236.000000 37 31 17
229.677658 -216.798523 1236.000000 39 33 19
231.824142 -216.798523 1236.000000 40 37 22
233.213516 -216.096909 1232.000000 42 38 26
235.353058 -216.096909 1232.000000 40 36 27
237.492691 -216.096909 1232.000000 38 31 23
238.659698 -215.219910 1227.000000 38 30 19
240.790543 -215.219910 1227.000000 39 29 17
242.921494 -215.219910 1227.000000 39 29 17
244.253479 -214.518280 1223.000000 38 28 16
246.377472 -214.518280 1223.000000 38 28 19
248.501373 -214.518280 1223.000000 42 29 23
249.805588 -213.816666 1219.000000 41 27 26
251.922623 -213.816666 1219.000000 41 26 23
254.039597 -213.816666 1219.000000 39 26 20
256.156647 -213.816666 1219.000000 38 25 16
258.273590 -213.816666 1219.000000 40 28 14
260.390564 -213.816666 1219.000000 36 26 14
261.430878 -212.939651 1214.000000 38 29 22
263.539154 -212.939651 1214.000000 37 27 28
265.647522 -212.939651 1214.000000 32 22 33
266.873566 -212.238037 1210.000000 42 34 49
268.974915 -212.238037 1210.000000 41 38 47
271.076324 -212.238037 1210.000000 47 41 45
273.177673 -212.238037 1210.000000 70 55 50
274.369049 -211.536423 1206.000000 53 33 24
276.463470 -211.536423 1206.000000 48 24 12
277.633911 -210.834808 1202.000000 43 19 15
279.721466 -210.834808 1202.000000 42 25 35
281.808899 -210.834808 1202.000000 46 32 49
283.896423 -210.834808 1202.000000 45 32 49
284.794220 -209.957794 1197.000000 38 24 41
286.873016 -209.957794 1197.000000 48 23 45
288.951843 -209.957794 1197.000000 51 27 53
292.246246 -210.834808 1202.000000 43 30 60
295.313263 -211.536423 1206.000000 130 118 142
298.394073 -212.238037 1210.000000 141 122 128
302.730499 -213.816666 1219.000000 145 121 119
304.847534 -213.816666 1219.000000 141 116 119
308.979034 -215.219910 1227.000000 142 117 121
311.109985 -215.219910 1227.000000 143 118 124
316.559601 -217.500153 1240.000000 144 118 127
321.026276 -219.078766 1249.000000 143 117 126
325.783051 -220.832794 1259.000000 142 116 127
330.313995 -222.411438 1268.000000 141 115 124
333.565094 -223.113052 1272.000000 141 116 122
337.093933 -223.990051 1277.000000 143 116 121
340.640198 -224.867081 1282.000000 143 117 120
344.203888 -225.744110 1287.000000 142 116 117
347.515686 -226.445694 1291.000000 141 115 116
357.885376 -231.707794 1321.000000 136 110 113
361.542755 -232.584824 1326.000000 124 97 102
366.589478 -234.338852 1336.000000 117 90 97
371.947144 -236.268311 1347.000000 119 94 100
377.342926 -238.197739 1358.000000 119 97 100
381.099396 -239.074738 1363.000000 116 96 98
384.873138 -239.951767 1368.000000 113 93 94
390.362701 -241.881195 1379.000000 110 90 92
395.890564 -243.810638 1390.000000 107 87 96
400.023804 -244.863052 1396.000000 107 87 96
402.448242 -244.863052 1396.000000 107 88 92
409.802979 -247.844910 1413.000000 107 89 89
189.380066 -224.613556 1268.000000 254 229 222
191.582123 -224.613556 1268.000000 172 146 121
193.784195 -224.613556 1268.000000 188 159 119
195.986343 -224.613556 1268.000000 43 21 0
198.188400 -224.613556 1268.000000 9 3 0
200.390533 -224.613556 1268.000000 30 26 23
201.793732 -223.727844 1263.000000 38 25 19
202.533524 -222.133591 1254.000000 43 26 19
203.895111 -221.247879 1249.000000 40 27 21
206.064178 -221.247879 1249.000000 39 28 26
208.233337 -221.247879 1249.000000 38 29 30
210.402390 -221.247879 1249.000000 38 29 30
212.571457 -221.247879 1249.000000 37 29 26
215.600250 -222.133591 1254.000000 36 29 21
217.778000 -222.133591 1254.000000 34 27 17
219.078812 -221.247879 1249.000000 34 27 17
221.247864 -221.247879 1249.000000 35 28 18
221.807053 -219.653625 1240.000000 36 29 19
223.960556 -219.653625 1240.000000 39 33 21
225.384598 -218.945084 1236.000000 39 33 21
227.531158 -218.945084 1236.000000 39 33 19
229.677658 -218.945084 1236.000000 38 32 18
231.824142 -218.945084 1236.000000 39 33 19
233.970718 -218.945084 1236.000000 41 35 23
235.353058 -218.236511 1232.000000 39 32 24
237.492691 -218.236511 1232.000000 37 30 22
239.632233 -218.236511 1232.000000 38 32 20
240.790543 -217.350815 1227.000000 40 32 19
242.921494 -217.350815 1227.000000 38 31 15
245.052353 -217.350815 1227.000000 38 28 16
247.183289 -217.350815 1227.000000 38 28 19
249.314148 -217.350815 1227.000000 39 28 26
250.625305 -216.642258 1223.000000 39 27 29
251.922623 -215.933685 1219.000000 39 24 27
254.039597 -215.933685 1219.000000 41 30 26
256.156647 -215.933685 1219.000000 35 25 16
258.273590 -215.933685 1219.000000 37 28 13
260.390564 -215.933685 1219.000000 33 24 9
261.430878 -215.047989 1214.000000 38 29 22
263.539154 -215.047989 1214.000000 31 20 24
265.647522 -215.047989 1214.000000 29 18 35
267.755798 -215.047989 1214.000000 76 68 83
269.864075 -215.047989 1214.000000 97 97 89
271.972443 -215.047989 1214.000000 120 118 97
273.177673 -214.339417 1210.000000 124 113 81
275.279083 -214.339417 1210.000000 101 81 46
276.463470 -213.630875 1206.000000 86 61 30
278.557831 -213.630875 1206.000000 44 22 1
279.721466 -212.922318 1202.000000 36 20 20
281.808899 -212.922318 1202.000000 39 28 36
283.896423 -212.922318 1202.000000 43 33 41
285.983856 -212.922318 1202.000000 40 27 37
288.071320 -212.922318 1202.000000 49 24 43
290.158844 -212.922318 1202.000000 38 12 39
292.246246 -212.922318 1202.000000 36 20 56
295.313263 -213.630875 1206.000000 131 116 147
298.394073 -214.339417 1210.000000 148 126 139
302.730499 -215.933685 1219.000000 144 119 122
304.847534 -215.933685 1219.000000 140 115 118
308.979034 -217.350815 1227.000000 141 116 120
312.377747 -218.236511 1232.000000 143 118 124
316.559601 -219.653625 1240.000000 144 118 127
321.026276 -221.247879 1249.000000 144 118 127
325.783051 -223.019287 1259.000000 143 117 126
330.313995 -224.613556 1268.000000 142 117 123
333.565094 -225.322113 1272.000000 141 116 122
337.093933 -226.207809 1277.000000 144 117 122
340.640198 -227.093521 1282.000000 145 119 122
344.203888 -227.979218 1287.000000 144 118 119
348.861603 -229.573486 1296.000000 143 117 118
357.885376 -234.001984 1321.000000 137 111 114
361.542755 -234.887680 1326.000000 124 97 102
366.589478 -236.659088 1336.000000 117 90 97
373.327789 -239.493317 1352.000000 120 95 99
378.732269 -241.441849 1363.000000 118 98 99
382.497406 -242.327545 1368.000000 115 97 95
386.561157 -243.390381 1374.000000 110 92 92
392.061157 -245.338943 1385.000000 107 88 92
395.890564 -246.224640 1390.000000 106 86 95
400.023804 -247.287476 1396.000000 106 86 95
404.177948 -248.350311 1402.000000 107 88 90
409.802979 -250.298843 1413.000000 108 90 88
189.380066 -226.815674 1268.000000 253 228 223
191.582123 -226.815674 1268.000000 168 142 119
193.784195 -226.815674 1268.000000 186 156 118
195.986343 -226.815674 1268.000000 42 19 0
198.188400 -226.815674 1268.000000 10 2 0
200.390533 -226.815674 1268.000000 32 27 24
201.793732 -225.921295 1263.000000 39 26 20
203.987122 -225.921295 1263.000000 44 27 20
204.711349 -224.311401 1254.000000 42 27 22
206.889099 -224.311401 1254.000000 40 29 25
208.233337 -223.417007 1249.000000 36 26 25
210.402390 -223.417007 1249.000000 37 27 26
212.571457 -223.417007 1249.000000 36 28 25
215.600250 -224.311401 1254.000000 36 27 22
217.778000 -224.311401 1254.000000 34 27 19
219.078812 -223.417007 1249.000000 34 25 16
221.247864 -223.417007 1249.000000 35 28 18
221.807053 -221.807129 1240.000000 37 28 19
223.960556 -221.807129 1240.000000 36 30 18
225.384598 -221.091614 1236.000000 39 31 20
227.531158 -221.091614 1236.000000 38 32 20
229.677658 -221.091614 1236.000000 37 29 18
231.824142 -221.091614 1236.000000 36 30 18
233.970718 -221.091614 1236.000000 39 30 21
236.117203 -221.091614 1236.000000 39 32 22
237.492691 -220.376129 1232.000000 39 32 22
239.632233 -220.376129 1232.000000 38 32 20
240.790543 -219.481720 1227.000000 39 33 19
242.921494 -219.481720 1227.000000 39 31 18
245.052353 -219.481720 1227.000000 36 28 17
247.183289 -219.481720 1227.000000 38 27 21
249.314148 -219.481720 1227.000000 40 28 28
251.444992 -219.481720 1227.000000 40 28 32
251.922623 -218.050705 1219.000000 38 26 30
254.039597 -218.050705 1219.000000 40 28 28
256.156647 -218.050705 1219.000000 32 21 15
258.273590 -218.050705 1219.000000 38 29 14
260.390564 -218.050705 1219.000000 34 24 12
261.430878 -217.156326 1214.000000 39 30 23
263.539154 -217.156326 1214.000000 24 13 19
265.647522 -217.156326 1214.000000 22 10 32
267.755798 -217.156326 1214.000000 97 88 107
269.864075 -217.156326 1214.000000 91 91 89
271.972443 -217.156326 1214.000000 136 135 115
273.177673 -216.440826 1210.000000 134 121 87
275.279083 -216.440826 1210.000000 117 98 58
277.380402 -216.440826 1210.000000 110 84 49
278.557831 -215.725311 1206.000000 45 19 0
279.721466 -215.009796 1202.000000 33 18 15
281.808899 -215.009796 1202.000000 39 27 37
283.896423 -215.009796 1202.000000 38 26 38
285.983856 -215.009796 1202.000000 42 28 43
288.071320 -215.009796 1202.000000 55 32 52
290.158844 -215.009796 1202.000000 37 12 41
292.246246 -215.009796 1202.000000 41 23 61
295.313263 -215.725311 1206.000000 139 122 154
299.380493 -217.156326 1214.000000 154 132 144
303.723877 -218.766220 1223.000000 137 112 115
306.848206 -219.481720 1227.000000 140 115 118
310.238129 -220.376129 1232.000000 141 116 119
314.406158 -221.807129 1240.000000 141 116 120
318.857208 -223.417007 1249.000000 141 116 122
322.311432 -224.311401 1254.000000 141 116 122
326.818115 -225.921295 1263.000000 141 115 124
330.313995 -226.815674 1268.000000 142 117 123
333.565094 -227.531174 1272.000000 142 117 121
337.093933 -228.425583 1277.000000 145 119 122
341.968750 -230.214325 1287.000000 146 120 123
346.610901 -231.824234 1296.000000 145 119 120
348.861603 -231.824234 1296.000000 145 119 120
356.530762 -235.401764 1316.000000 138 112 115
367.268524 -240.946930 1347.000000 124 97 102
370.979767 -241.841324 1352.000000 117 90 97
374.984558 -242.914597 1358.000000 121 96 100
378.732269 -243.808960 1363.000000 117 98 94
382.497406 -244.703339 1368.000000 113 95 91
384.873138 -244.703339 1368.000000 109 91 91
393.476532 -248.638641 1390.000000 106 87 89
397.599457 -249.711884 1396.000000 105 86 92
400.023804 -249.711884 1396.000000 106 87 93
404.177948 -250.785156 1402.000000 108 90 90
411.543121 -253.826050 1419.000000 110 92 88
189.380066 -229.017731 1268.000000 254 229 225
191.582123 -229.017731 1268.000000 165 138 117
193.784195 -229.017731 1268.000000 185 155 117
195.986343 -229.017731 1268.000000 44 21 0
198.188400 -229.017731 1268.000000 10 2 0
200.390533 -229.017731 1268.000000 35 29 29
202.592590 -229.017731 1268.000000 42 29 23
204.794662 -229.017731 1268.000000 43 26 19
206.180573 -228.114685 1263.000000 43 28 23
207.714020 -227.392227 1259.000000 40 26 23
209.900528 -227.392227 1259.000000 38 27 25
211.244675 -226.489151 1254.000000 36 25 23
213.422424 -226.489151 1254.000000 34 24 22
215.600250 -226.489151 1254.000000 36 25 21
217.778000 -226.489151 1254.000000 36 27 22
219.078812 -225.586075 1249.000000 36 25 19
221.247864 -225.586075 1249.000000 34 25 16
222.701431 -224.863617 1245.000000 35 25 15
223.960556 -223.960571 1240.000000 37 29 16
226.113998 -223.960571 1240.000000 37 27 17
228.267517 -223.960571 1240.000000 36 28 17
229.677658 -223.238113 1236.000000 38 28 19
231.824142 -223.238113 1236.000000 38 29 20
233.970718 -223.238113 1236.000000 40 30 21
236.117203 -223.238113 1236.000000 39 30 21
238.263763 -223.238113 1236.000000 39 30 21
239.632233 -222.515656 1232.000000 39 33 21
240.790543 -221.612579 1227.000000 41 35 23
242.921494 -221.612579 1227.000000 42 34 23
246.050934 -222.515656 1232.000000 38 29 20
247.183289 -221.612579 1227.000000 37 28 23
249.314148 -221.612579 1227.000000 39 29 30
251.444992 -221.612579 1227.000000 40 27 34
251.922623 -220.167679 1219.000000 36 23 30
254.039597 -220.167679 1219.000000 41 29 31
256.156647 -220.167679 1219.000000 38 27 23
258.273590 -220.167679 1219.000000 36 28 15
260.390564 -220.167679 1219.000000 32 24 13
261.430878 -219.264633 1214.000000 36 27 22
263.539154 -219.264633 1214.000000 21 10 18
265.647522 -219.264633 1214.000000 31 17 42
267.755798 -219.264633 1214.000000 100 89 119
269.864075 -219.264633 1214.000000 119 115 138
271.972443 -219.264633 1214.000000 150 144 154
273.177673 -218.542175 1210.000000 141 124 114
275.279083 -218.542175 1210.000000 122 97 75
277.380402 -218.542175 1210.000000 136 106 82
278.557831 -217.819717 1206.000000 43 14 0
279.721466 -217.097260 1202.000000 31 14 22
281.808899 -217.097260 1202.000000 42 29 49
283.896423 -217.097260 1202.000000 40 26 49
285.983856 -217.097260 1202.000000 48 30 56
288.071320 -217.097260 1202.000000 48 25 54
290.158844 -217.097260 1202.000000 40 16 50
292.246246 -217.097260 1202.000000 47 29 67
295.313263 -217.819717 1206.000000 142 123 151
299.380493 -219.264633 1214.000000 155 133 136
304.717255 -221.612579 1227.000000 144 119 114
308.098602 -222.515656 1232.000000 143 119 117
311.245392 -223.238113 1236.000000 141 116 119
315.673920 -224.863617 1245.000000 141 116 120
318.857208 -225.586075 1249.000000 143 118 124
322.311432 -226.489151 1254.000000 144 119 125
325.783051 -227.392227 1259.000000 143 118 124
330.313995 -229.017731 1268.000000 142 117 121
333.565094 -229.740189 1272.000000 143 118 122
338.413818 -231.546310 1282.000000 147 121 124
343.031586 -233.171844 1291.000000 148 122 125
347.948151 -234.977966 1301.000000 153 127 128
350.207520 -234.977966 1301.000000 137 111 112
356.530762 -237.687164 1316.000000 131 105 108
362.906036 -240.396362 1331.000000 124 97 102
372.626099 -245.272934 1358.000000 122 95 102
376.365204 -246.176010 1363.000000 120 95 98
380.121582 -247.079086 1368.000000 116 97 91
382.497406 -247.079086 1368.000000 113 96 88
386.561157 -248.162750 1374.000000 111 93 89
393.476532 -251.052567 1390.000000 109 91 91
397.599457 -252.136246 1396.000000 107 88 90
400.023804 -252.136246 1396.000000 108 89 91
404.177948 -253.219940 1402.000000 109 91 87
411.543121 -256.290344 1419.000000 110 93 86
191.582123 -231.219849 1268.000000 170 143 124
193.784195 -231.219849 1268.000000 183 153 117
195.986343 -231.219849 1268.000000 44 21 0
198.188400 -231.219849 1268.000000 9 2 0
200.390533 -231.219849 1268.000000 33 29 28
202.592590 -231.219849 1268.000000 42 29 23
204.794662 -231.219849 1268.000000 43 26 18
206.180573 -230.308090 1263.000000 41 28 20
208.373947 -230.308090 1263.000000 40 27 21
209.900528 -229.578690 1259.000000 40 26 23
211.244675 -228.666946 1254.000000 38 24 23
213.422424 -228.666946 1254.000000 36 25 23
215.600250 -228.666946 1254.000000 37 26 24
217.778000 -228.666946 1254.000000 38 27 23
219.078812 -227.755203 1249.000000 36 25 19
221.247864 -227.755203 1249.000000 36 26 17
222.701431 -227.025803 1245.000000 36 26 16
224.863632 -227.025803 1245.000000 40 30 18
226.113998 -226.114044 1240.000000 39 29 19
228.267517 -226.114044 1240.000000 38 28 19
230.420944 -226.114044 1240.000000 38 27 21
232.574371 -226.114044 1240.000000 39 28 22
234.727890 -226.114044 1240.000000 42 29 23
236.117203 -225.384644 1236.000000 41 31 22
238.263763 -225.384644 1236.000000 42 32 23
239.632233 -224.655243 1232.000000 39 31 20
241.771759 -224.655243 1232.000000 40 34 22
243.911392 -224.655243 1232.000000 41 33 22
246.050934 -224.655243 1232.000000 37 28 19
248.190552 -224.655243 1232.000000 36 26 24
250.330093 -224.655243 1232.000000 38 28 29
252.469620 -224.655243 1232.000000 39 26 33
253.575943 -223.743500 1227.000000 36 23 30
255.706802 -223.743500 1227.000000 38 26 28
256.997192 -223.014099 1223.000000 34 23 19
258.273590 -222.284698 1219.000000 39 31 20
260.390564 -222.284698 1219.000000 38 29 20
261.430878 -221.372940 1214.000000 35 25 23
263.539154 -221.372940 1214.000000 23 11 21
265.647522 -221.372940 1214.000000 19 5 28
267.755798 -221.372940 1214.000000 52 38 71
269.864075 -221.372940 1214.000000 58 51 85
271.972443 -221.372940 1214.000000 146 138 162
273.177673 -220.643539 1210.000000 136 120 121
275.279083 -220.643539 1210.000000 127 101 88
277.380402 -220.643539 1210.000000 151 118 101
278.557831 -219.914154 1206.000000 51 21 13
279.721466 -219.184753 1202.000000 23 5 17
281.808899 -219.184753 1202.000000 39 25 50
283.896423 -219.184753 1202.000000 40 24 51
285.983856 -219.184753 1202.000000 40 21 51
288.071320 -219.184753 1202.000000 41 21 49
290.158844 -219.184753 1202.000000 49 28 59
292.246246 -219.184753 1202.000000 43 26 60
295.313263 -219.914154 1206.000000 139 121 145
299.380493 -221.372940 1214.000000 153 131 133
304.717255 -223.743500 1227.000000 142 117 110
308.098602 -224.655243 1232.000000 144 120 118
312.252655 -226.114044 1240.000000 143 118 121
315.673920 -227.025803 1245.000000 143 118 122
318.857208 -227.755203 1249.000000 145 120 124
322.311432 -228.666946 1254.000000 146 121 127
325.783051 -229.578690 1259.000000 145 120 126
330.313995 -231.219849 1268.000000 145 120 124
333.565094 -231.949249 1272.000000 145 120 124
339.733673 -234.684525 1287.000000 147 121 124
343.031586 -235.413925 1291.000000 146 120 123
347.948151 -237.237427 1301.000000 151 125 126
351.553436 -238.149170 1306.000000 135 109 110
357.885376 -240.884415 1321.000000 130 104 105
362.906036 -242.707916 1331.000000 124 98 101
370.979767 -246.537277 1352.000000 121 94 99
376.365204 -248.543121 1363.000000 119 94 97
380.121582 -249.454865 1368.000000 117 98 91
382.497406 -249.454865 1368.000000 114 97 87
386.561157 -250.548965 1374.000000 111 94 87
393.476532 -253.466568 1390.000000 109 91 89
397.599457 -254.560669 1396.000000 108 90 90
401.743103 -255.654770 1402.000000 108 90 88
407.349091 -257.660614 1413.000000 110 93 86
191.582123 -233.421906 1268.000000 169 142 123
193.784195 -233.421906 1268.000000 179 151 114
195.986343 -233.421906 1268.000000 44 21 0
198.188400 -233.421906 1268.000000 10 3 0
200.390533 -233.421906 1268.000000 33 29 28
202.592590 -233.421906 1268.000000 42 29 21
204.794662 -233.421906 1268.000000 43 26 18
206.180573 -232.501480 1263.000000 40 27 19
208.373947 -232.501480 1263.000000 39 26 20
209.900528 -231.765137 1259.000000 39 26 20
212.086960 -231.765137 1259.000000 39 24 21
214.273392 -231.765137 1259.000000 39 25 24
216.459900 -231.765137 1259.000000 41 27 27
217.778000 -230.844711 1254.000000 40 26 25
219.078812 -229.924271 1249.000000 38 24 21
221.247864 -229.924271 1249.000000 38 25 17
222.701431 -229.187927 1245.000000 40 27 18
224.863632 -229.187927 1245.000000 44 32 20
227.025742 -229.187927 1245.000000 42 29 20
229.187943 -229.187927 1245.000000 40 27 21
230.420944 -228.267502 1240.000000 38 24 21
232.574371 -228.267502 1240.000000 39 25 22
235.674377 -229.187927 1245.000000 42 27 24
236.881332 -228.267502 1240.000000 43 30 24
239.034851 -228.267502 1240.000000 44 31 23
240.410263 -227.531158 1236.000000 38 29 20
241.771759 -226.794800 1232.000000 39 30 21
243.911392 -226.794800 1232.000000 39 30 21
246.050934 -226.794800 1232.000000 36 27 20
248.190552 -226.794800 1232.000000 35 26 21
249.314148 -225.874359 1227.000000 37 27 26
251.444992 -225.874359 1227.000000 38 26 28
253.575943 -225.874359 1227.000000 36 24 26
255.706802 -225.874359 1227.000000 39 28 26
256.997192 -225.138016 1223.000000 31 20 16
258.273590 -224.401672 1219.000000 40 29 23
260.390564 -224.401672 1219.000000 38 27 21
262.507599 -224.401672 1219.000000 32 20 20
264.624573 -224.401672 1219.000000 34 21 30
266.741608 -224.401672 1219.000000 26 11 30
267.755798 -223.481247 1214.000000 23 10 36
269.864075 -223.481247 1214.000000 42 35 68
271.972443 -223.481247 1214.000000 133 125 149
273.177673 -222.744904 1210.000000 122 107 110
275.279083 -222.744904 1210.000000 135 111 101
277.380402 -222.744904 1210.000000 131 97 85
278.557831 -222.008545 1206.000000 62 29 24
280.652313 -222.008545 1206.000000 31 13 25
282.746704 -222.008545 1206.000000 42 28 51
284.841187 -222.008545 1206.000000 44 26 52
286.935547 -222.008545 1206.000000 36 18 44
289.029938 -222.008545 1206.000000 36 19 38
291.124420 -222.008545 1206.000000 58 43 62
293.218781 -222.008545 1206.000000 42 30 54
295.313263 -222.008545 1206.000000 138 123 142
299.380493 -223.481247 1214.000000 155 130 134
304.717255 -225.874359 1227.000000 146 118 117
309.098907 -227.531158 1236.000000 146 120 121
313.511749 -229.187927 1245.000000 144 119 122
315.673920 -229.187927 1245.000000 144 119 123
318.857208 -229.924271 1249.000000 146 121 125
322.311432 -230.844711 1254.000000 147 122 128
326.818115 -232.501480 1263.000000 146 121 127
330.313995 -233.421906 1268.000000 146 121 125
334.876282 -235.078705 1277.000000 146 121 125
340.789581 -237.655899 1291.000000 147 121 124
344.360138 -238.576355 1296.000000 146 120 121
349.285370 -240.417206 1306.000000 149 123 122
352.899353 -241.337646 1311.000000 134 108 109
357.885376 -243.178497 1321.000000 130 104 105
362.906036 -245.019379 1331.000000 124 98 101
370.979767 -248.885208 1352.000000 122 96 99
376.365204 -250.910156 1363.000000 119 95 95
380.121582 -251.830582 1368.000000 117 97 90
382.497406 -251.830582 1368.000000 115 97 87
386.561157 -252.935120 1374.000000 112 93 86
392.061157 -254.960068 1385.000000 109 90 84
397.599457 -256.985016 1396.000000 108 90 86
403.175842 -259.009949 1407.000000 108 90 86
407.349091 -260.114471 1413.000000 110 93 85
192.186493 -236.367340 1272.000000 162 135 118
194.395493 -236.367340 1272.000000 173 145 108
196.604584 -236.367340 1272.000000 42 22 0
198.813599 -236.367340 1272.000000 8 4 0
201.022690 -236.367340 1272.000000 30 29 27
202.592590 -235.624054 1268.000000 40 30 21
204.794662 -235.624054 1268.000000 41 27 16
206.180573 -234.694931 1263.000000 37 27 17
208.373947 -234.694931 1263.000000 37 27 18
210.567398 -234.694931 1263.000000 38 25 17
212.086960 -233.951630 1259.000000 40 25 22
214.273392 -233.951630 1259.000000 41 25 25
216.459900 -233.951630 1259.000000 43 27 28
217.778000 -233.022507 1254.000000 41 27 27
219.078812 -232.093384 1249.000000 39 25 22
221.247864 -232.093384 1249.000000 39 26 18
223.416946 -232.093384 1249.000000 41 28 19
224.863632 -231.350098 1245.000000 43 31 19
227.025742 -231.350098 1245.000000 41 28 20
229.187943 -231.350098 1245.000000 38 24 21
231.350067 -231.350098 1245.000000 37 23 23
233.512177 -231.350098 1245.000000 38 24 24
235.674377 -231.350098 1245.000000 40 24 24
237.836502 -231.350098 1245.000000 41 26 21
239.034851 -230.420990 1240.000000 41 28 20
240.410263 -229.677689 1236.000000 37 27 18
241.771759 -228.934387 1232.000000 37 28 19
243.911392 -228.934387 1232.000000 37 28 19
246.050934 -228.934387 1232.000000 35 26 19
248.190552 -228.934387 1232.000000 34 25 18
249.314148 -228.005295 1227.000000 37 26 22
251.444992 -228.005295 1227.000000 37 26 22
253.575943 -228.005295 1227.000000 36 25 21
255.706802 -228.005295 1227.000000 38 27 21
256.997192 -227.261978 1223.000000 32 21 15
258.273590 -226.518692 1219.000000 38 27 21
260.390564 -226.518692 1219.000000 34 23 21
262.507599 -226.518692 1219.000000 32 20 22
264.624573 -226.518692 1219.000000 44 29 36
266.741608 -226.518692 1219.000000 38 24 37
268.858582 -226.518692 1219.000000 27 14 34
269.864075 -225.589584 1214.000000 20 11 42
271.972443 -225.589584 1214.000000 60 51 78
274.080719 -225.589584 1214.000000 95 82 91
275.279083 -224.846298 1210.000000 97 76 75
277.380402 -224.846298 1210.000000 111 76 72
278.557831 -224.102982 1206.000000 47 13 14
280.652313 -224.102982 1206.000000 38 17 34
282.746704 -224.102982 1206.000000 31 15 41
284.841187 -224.102982 1206.000000 45 25 50
286.935547 -224.102982 1206.000000 37 18 38
289.029938 -224.102982 1206.000000 29 17 27
291.124420 -224.102982 1206.000000 55 48 55
293.218781 -224.102982 1206.000000 48 40 53
295.313263 -224.102982 1206.000000 141 127 142
299.380493 -225.589584 1214.000000 155 129 138
305.958984 -228.934387 1232.000000 149 118 124
309.098907 -229.677689 1236.000000 144 118 121
312.252655 -230.420990 1240.000000 143 118 121
316.688141 -232.093384 1249.000000 143 118 122
318.857208 -232.093384 1249.000000 144 119 123
322.311432 -233.022507 1254.000000 146 121 127
326.818115 -234.694931 1263.000000 146 121 127
331.355988 -236.367340 1272.000000 146 121 125
336.187469 -238.225571 1282.000000 146 121 124
340.789581 -239.897980 1291.000000 148 122 123
344.360138 -240.827103 1296.000000 146 120 121
349.285370 -242.685333 1306.000000 149 123 122
354.245270 -244.543564 1316.000000 134 108 107
357.885376 -245.472687 1321.000000 131 105 104
362.906036 -247.330902 1331.000000 126 100 101
370.979767 -251.233215 1352.000000 124 98 99
376.365204 -253.277252 1363.000000 121 97 97
380.121582 -254.206375 1368.000000 117 97 90
382.497406 -254.206375 1368.000000 114 96 86
386.561157 -255.321304 1374.000000 111 93 83
392.061157 -257.365356 1385.000000 109 90 83
397.599457 -259.409424 1396.000000 107 90 82
403.175842 -261.453491 1407.000000 108 91 83
409.078827 -263.683350 1419.000000 110 93 86
192.186493 -238.576355 1272.000000 158 132 115
194.395493 -238.576355 1272.000000 164 138 101
196.604584 -238.576355 1272.000000 40 20 0
198.813599 -238.576355 1272.000000 9 5 0
201.022690 -238.576355 1272.000000 29 28 26
202.592590 -237.826096 1268.000000 40 31 22
204.794662 -237.826096 1268.000000 40 28 16
206.180573 -236.888290 1263.000000 35 27 16
208.373947 -236.888290 1263.000000 36 27 18
210.567398 -236.888290 1263.000000 39 26 18
212.760773 -236.888290 1263.000000 40 25 20
214.273392 -236.138062 1259.000000 41 27 27
216.459900 -236.138062 1259.000000 42 27 30
217.778000 -235.200256 1254.000000 39 27 29
219.955841 -235.200256 1254.000000 37 26 24
221.247864 -234.262451 1249.000000 37 27 18
223.416946 -234.262451 1249.000000 39 29 19
224.863632 -233.512222 1245.000000 39 29 19
227.025742 -233.512222 1245.000000 37 27 18
229.187943 -233.512222 1245.000000 36 25 23
231.350067 -233.512222 1245.000000 37 22 25
233.512177 -233.512222 1245.000000 38 23 26
235.674377 -233.512222 1245.000000 39 25 25
237.836502 -233.512222 1245.000000 40 25 22
239.998703 -233.512222 1245.000000 39 26 18
241.188278 -232.574417 1240.000000 36 26 16
242.556732 -231.824188 1236.000000 37 27 17
243.911392 -231.073944 1232.000000 36 26 17
246.050934 -231.073944 1232.000000 35 25 16
248.190552 -231.073944 1232.000000 35 25 16
250.330093 -231.073944 1232.000000 36 26 17
251.444992 -230.136154 1227.000000 37 27 17
253.575943 -230.136154 1227.000000 38 25 16
255.706802 -230.136154 1227.000000 35 22 13
256.997192 -229.385895 1223.000000 39 26 18
259.121094 -229.385895 1223.000000 42 28 25
260.390564 -228.635651 1219.000000 38 24 23
262.507599 -228.635651 1219.000000 39 24 27
264.624573 -228.635651 1219.000000 44 28 31
266.741608 -228.635651 1219.000000 39 24 29
268.858582 -228.635651 1219.000000 35 21 34
270.975555 -228.635651 1219.000000 28 17 49
271.972443 -227.697861 1214.000000 18 7 41
274.080719 -227.697861 1214.000000 17 4 24
275.279083 -226.947617 1210.000000 22 0 13
277.380402 -226.947617 1210.000000 41 5 15
279.481750 -226.947617 1210.000000 49 13 27
280.652313 -226.197388 1206.000000 29 6 32
282.746704 -226.197388 1206.000000 46 27 57
284.841187 -226.197388 1206.000000 44 20 46
286.935547 -226.197388 1206.000000 38 17 34
289.029938 -226.197388 1206.000000 22 14 12
291.124420 -226.197388 1206.000000 44 44 36
293.218781 -226.197388 1206.000000 53 51 52
295.313263 -226.197388 1206.000000 140 129 137
299.380493 -227.697861 1214.000000 154 126 140
305.958984 -231.073944 1232.000000 149 115 129
309.098907 -231.824188 1236.000000 143 116 121
312.252655 -232.574417 1240.000000 143 118 121
316.688141 -234.262451 1249.000000 143 118 122
320.133667 -235.200256 1254.000000 144 119 123
323.596558 -236.138062 1259.000000 145 120 126
328.111908 -237.826096 1268.000000 146 121 127
332.658508 -239.514145 1277.000000 146 121 125
337.498627 -241.389755 1287.000000 145 120 123
340.789581 -242.139984 1291.000000 148 122 123
344.360138 -243.077789 1296.000000 145 119 118
350.622620 -245.891190 1311.000000 149 124 120
354.245270 -246.828979 1316.000000 134 108 107
359.239960 -248.704590 1326.000000 131 105 104
367.268524 -252.643356 1347.000000 127 101 102
370.979767 -253.581146 1352.000000 125 99 100
376.365204 -255.644287 1363.000000 122 98 98
380.121582 -256.582092 1368.000000 118 97 94
384.175018 -257.707458 1374.000000 116 96 89
386.561157 -257.707458 1374.000000 112 94 84
392.061157 -259.770630 1385.000000 109 91 81
399.308319 -262.959137 1402.000000 109 91 81
403.175842 -263.896942 1407.000000 110 91 84
409.078827 -266.147644 1419.000000 111 94 87
192.186493 -240.785416 1272.000000 157 131 114
194.395493 -240.785416 1272.000000 156 130 93
196.604584 -240.785416 1272.000000 37 18 0
198.813599 -240.785416 1272.000000 9 5 0
201.022690 -240.785416 1272.000000 28 28 26
202.592590 -240.028229 1268.000000 40 33 23
204.794662 -240.028229 1268.000000 40 30 18
206.996811 -240.028229 1268.000000 34 28 14
208.373947 -239.081726 1263.000000 37 29 18
210.567398 -239.081726 1263.000000 41 28 19
212.760773 -239.081726 1263.000000 41 26 21
214.273392 -238.324554 1259.000000 40 26 26
216.459900 -238.324554 1259.000000 41 26 29
217.778000 -237.378082 1254.000000 38 26 28
219.955841 -237.378082 1254.000000 37 25 25
221.247864 -236.431580 1249.000000 37 27 18
223.416946 -236.431580 1249.000000 39 29 19
224.863632 -235.674393 1245.000000 38 28 18
227.025742 -235.674393 1245.000000 38 27 21
229.187943 -235.674393 1245.000000 37 25 25
231.350067 -235.674393 1245.000000 37 25 29
233.512177 -235.674393 1245.000000 38 26 30
235.674377 -235.674393 1245.000000 40 25 28
237.836502 -235.674393 1245.000000 39 25 22
239.998703 -235.674393 1245.000000 39 26 18
241.188278 -234.727921 1240.000000 38 25 16
242.556732 -233.970718 1236.000000 36 26 14
243.911392 -233.213531 1232.000000 35 25 15
246.050934 -233.213531 1232.000000 35 25 15
248.190552 -233.213531 1232.000000 35 25 15
250.330093 -233.213531 1232.000000 36 26 14
251.444992 -232.267059 1227.000000 39 27 11
253.575943 -232.267059 1227.000000 40 28 12
255.706802 -232.267059 1227.000000 36 24 10
256.997192 -231.509888 1223.000000 43 30 21
259.121094 -231.509888 1223.000000 41 27 24
260.390564 -230.752670 1219.000000 39 23 24
262.507599 -230.752670 1219.000000 41 25 26
264.624573 -230.752670 1219.000000 38 22 23
266.741608 -230.752670 1219.000000 38 23 20
268.858582 -230.752670 1219.000000 45 30 35
270.975555 -230.752670 1219.000000 46 34 58
271.972443 -229.806198 1214.000000 37 27 54
274.080719 -229.806198 1214.000000 57 46 63
275.279083 -229.049026 1210.000000 48 31 41
276.463470 -228.291809 1206.000000 54 21 28
278.557831 -228.291809 1206.000000 45 12 21
280.652313 -228.291809 1206.000000 30 7 27
282.746704 -228.291809 1206.000000 32 12 37
285.785889 -229.049026 1210.000000 43 17 42
287.887238 -229.049026 1210.000000 37 17 29
289.988586 -229.049026 1210.000000 16 12 3
292.089996 -229.049026 1210.000000 45 47 33
294.191315 -229.049026 1210.000000 61 62 56
297.272217 -229.806198 1214.000000 143 132 138
299.380493 -229.806198 1214.000000 156 125 141
304.717255 -232.267059 1227.000000 151 114 132
309.098907 -233.970718 1236.000000 146 116 124
312.252655 -234.727921 1240.000000 144 119 123
315.673920 -235.674393 1245.000000 145 120 124
318.857208 -236.431580 1249.000000 145 120 124
324.624634 -239.081726 1263.000000 146 121 127
329.147003 -240.785416 1272.000000 148 123 129
332.658508 -241.731888 1277.000000 148 123 127
337.498627 -243.624863 1287.000000 147 122 125
340.789581 -244.382034 1291.000000 147 121 122
344.360138 -245.328537 1296.000000 145 119 118
350.622620 -248.167984 1311.000000 149 124 120
354.245270 -249.114471 1316.000000 134 109 105
359.239960 -251.007446 1326.000000 131 106 102
367.268524 -254.982666 1347.000000 126 100 99
372.626099 -257.064941 1358.000000 124 98 97
376.365204 -258.011414 1363.000000 122 96 97
380.121582 -258.957916 1368.000000 121 97 97
384.175018 -260.093689 1374.000000 117 96 93
387.967865 -261.040161 1379.000000 113 95 85
396.873474 -265.393982 1402.000000 110 92 80
400.732391 -266.340454 1407.000000 110 92 80
404.895142 -267.476257 1413.000000 111 93 83
192.186493 -242.994415 1272.000000 151 125 108
194.395493 -242.994415 1272.000000 149 123 86
196.604584 -242.994415 1272.000000 35 16 0
198.813599 -242.994415 1272.000000 7 5 0
201.022690 -242.994415 1272.000000 28 28 26
202.592590 -242.230270 1268.000000 42 35 25
204.794662 -242.230270 1268.000000 41 31 19
206.996811 -242.230270 1268.000000 34 28 14
208.373947 -241.275116 1263.000000 37 31 19
210.567398 -241.275116 1263.000000 41 31 21
212.760773 -241.275116 1263.000000 40 27 21
214.273392 -240.510971 1259.000000 37 25 25
216.459900 -240.510971 1259.000000 37 25 27
217.778000 -239.555817 1254.000000 37 27 28
219.955841 -239.555817 1254.000000 36 26 25
222.133575 -239.555817 1254.000000 36 27 18
223.416946 -238.600647 1249.000000 37 29 18
224.863632 -237.836517 1245.000000 37 29 18
227.025742 -237.836517 1245.000000 37 28 21
229.187943 -237.836517 1245.000000 36 26 27
231.350067 -237.836517 1245.000000 38 25 32
233.512177 -237.836517 1245.000000 39 26 33
235.674377 -237.836517 1245.000000 41 26 31
237.836502 -237.836517 1245.000000 40 26 25
239.998703 -237.836517 1245.000000 40 27 19
241.188278 -236.881348 1240.000000 38 26 14
242.556732 -236.117218 1236.000000 38 26 14
243.911392 -235.353073 1232.000000 37 24 15
246.050934 -235.353073 1232.000000 37 24 15
248.190552 -235.353073 1232.000000 37 25 11
250.330093 -235.353073 1232.000000 38 26 10
251.444992 -234.397919 1227.000000 40 29 7
253.575943 -234.397919 1227.000000 41 30 8
255.706802 -234.397919 1227.000000 42 29 10
256.997192 -233.633774 1223.000000 42 28 15
259.121094 -233.633774 1223.000000 40 25 22
261.245026 -233.633774 1223.000000 40 24 25
263.369019 -233.633774 1223.000000 39 23 24
265.492920 -233.633774 1223.000000 39 21 19
266.741608 -232.869644 1219.000000 43 26 18
268.858582 -232.869644 1219.000000 46 33 27
270.975555 -232.869644 1219.000000 41 31 39
271.972443 -231.914474 1214.000000 98 90 101
274.080719 -231.914474 1214.000000 125 120 117
275.279083 -231.150345 1210.000000 140 127 118
276.463470 -230.386215 1206.000000 102 75 58
278.557831 -230.386215 1206.000000 43 14 0
280.652313 -230.386215 1206.000000 23 3 2
282.746704 -230.386215 1206.000000 34 17 25
285.785889 -231.150345 1210.000000 46 19 36
287.887238 -231.150345 1210.000000 34 12 24
289.988586 -231.150345 1210.000000 13 10 1
292.089996 -231.150345 1210.000000 60 67 51
294.191315 -231.150345 1210.000000 66 69 62
297.272217 -231.914474 1214.000000 148 137 141
299.380493 -231.914474 1214.000000 159 128 144
301.488800 -231.914474 1214.000000 155 116 135
305.847870 -233.633774 1223.000000 147 117 125
311.245392 -236.117218 1236.000000 146 121 125
314.406158 -236.881348 1240.000000 147 122 126
318.857208 -238.600647 1249.000000 146 121 127
324.624634 -241.275116 1263.000000 148 123 129
329.147003 -242.994415 1272.000000 150 125 131
335.263489 -245.859924 1287.000000 151 126 130
338.547577 -246.624039 1291.000000 149 124 127
342.109467 -247.579224 1296.000000 148 122 123
344.360138 -247.579224 1296.000000 147 121 120
350.622620 -250.444717 1311.000000 152 127 123
354.245270 -251.399902 1316.000000 136 111 107
360.594574 -254.265396 1331.000000 131 106 102
368.631805 -258.277100 1352.000000 125 99 98
373.998077 -260.378448 1363.000000 122 96 95
377.745850 -261.333618 1368.000000 121 95 96
380.121582 -261.333618 1368.000000 121 96 99
384.175018 -262.479828 1374.000000 118 94 94
392.750641 -266.682556 1396.000000 113 93 86
396.873474 -267.828735 1402.000000 111 91 80
400.732391 -268.783936 1407.000000 109 91 77
406.614441 -271.076324 1419.000000 111 93 83
192.186493 -245.203476 1272.000000 144 116 104
194.395493 -245.203476 1272.000000 145 118 89
196.604584 -245.203476 1272.000000 33 13 0
198.813599 -245.203476 1272.000000 8 4 0
201.022690 -245.203476 1272.000000 29 28 24
202.592590 -244.432419 1268.000000 43 37 25
204.794662 -244.432419 1268.000000 41 33 20
206.996811 -244.432419 1268.000000 35 29 17
208.373947 -243.468567 1263.000000 37 30 20
210.567398 -243.468567 1263.000000 42 31 25
212.760773 -243.468567 1263.000000 39 28 24
214.273392 -242.697464 1259.000000 36 24 24
216.459900 -242.697464 1259.000000 36 26 27
217.778000 -241.733612 1254.000000 36 26 27
219.955841 -241.733612 1254.000000 36 26 25
222.133575 -241.733612 1254.000000 35 26 19
223.416946 -240.769760 1249.000000 36 27 18
225.586075 -240.769760 1249.000000 37 28 19
227.755142 -240.769760 1249.000000 36 27 20
229.924301 -240.769760 1249.000000 36 26 25
231.350067 -239.998703 1245.000000 37 25 27
233.512177 -239.998703 1245.000000 38 26 28
235.674377 -239.998703 1245.000000 41 27 27
237.836502 -239.998703 1245.000000 41 28 22
239.998703 -239.998703 1245.000000 40 27 18
242.160812 -239.998703 1245.000000 39 27 13
243.341705 -239.034851 1240.000000 38 26 12
244.703323 -238.263779 1236.000000 37 24 15
246.849792 -238.263779 1236.000000 37 24 15
248.190552 -237.492676 1232.000000 36 26 14
250.330093 -237.492676 1232.000000 37 28 11
252.469620 -237.492676 1232.000000 38 30 7
253.575943 -236.528824 1227.000000 42 32 7
255.706802 -236.528824 1227.000000 41 30 10
257.837738 -236.528824 1227.000000 38 24 11
259.121094 -235.757767 1223.000000 39 24 21
261.245026 -235.757767 1223.000000 47 28 30
263.369019 -235.757767 1223.000000 43 24 26
265.492920 -235.757767 1223.000000 40 22 22
267.616913 -235.757767 1223.000000 43 26 18
268.858582 -234.986664 1219.000000 35 20 15
270.975555 -234.986664 1219.000000 30 20 29
271.972443 -234.022812 1214.000000 113 108 115
274.080719 -234.022812 1214.000000 111 110 105
275.279083 -233.251740 1210.000000 134 127 109
276.463470 -232.480652 1206.000000 164 141 110
278.557831 -232.480652 1206.000000 46 20 0
280.652313 -232.480652 1206.000000 18 4 0
282.746704 -232.480652 1206.000000 33 18 23
285.785889 -233.251740 1210.000000 43 21 33
287.887238 -233.251740 1210.000000 28 8 17
289.988586 -233.251740 1210.000000 10 9 4
292.089996 -233.251740 1210.000000 78 81 72
295.163849 -234.022812 1214.000000 69 70 65
297.272217 -234.022812 1214.000000 151 138 145
299.380493 -234.022812 1214.000000 160 129 147
301.488800 -234.022812 1214.000000 155 118 136
305.847870 -235.757767 1223.000000 148 118 128
311.245392 -238.263779 1236.000000 147 122 126
314.406158 -239.034851 1240.000000 147 122 128
318.857208 -240.769760 1249.000000 147 122 128
328.223053 -246.167328 1277.000000 149 124 130
331.734650 -247.131180 1282.000000 151 126 132
335.263489 -248.095032 1287.000000 151 126 130
338.547577 -248.866119 1291.000000 150 124 127
342.109467 -249.829971 1296.000000 150 124 125
344.360138 -249.829971 1296.000000 150 124 123
351.959839 -253.685379 1316.000000 155 129 128
355.591187 -254.649231 1321.000000 139 113 112
360.594574 -256.576935 1331.000000 132 106 105
367.268524 -259.661224 1347.000000 125 99 98
370.979767 -260.625092 1352.000000 122 96 97
376.365204 -262.745575 1363.000000 121 95 96
380.121582 -263.709412 1368.000000 119 94 97
390.326294 -269.106964 1396.000000 117 93 93
394.438690 -270.263580 1402.000000 112 91 86
398.288849 -271.227417 1407.000000 108 90 80
402.441284 -272.384064 1413.000000 107 91 78
406.614441 -273.540680 1419.000000 109 92 84
192.186493 -247.412491 1272.000000 133 98 96
194.395493 -247.412491 1272.000000 135 107 93
196.604584 -247.412491 1272.000000 33 14 0
198.813599 -247.412491 1272.000000 9 0 0
201.022690 -247.412491 1272.000000 39 32 26
202.592590 -246.634476 1268.000000 41 33 22
204.794662 -246.634476 1268.000000 37 29 18
206.996811 -246.634476 1268.000000 36 29 23
208.373947 -245.661926 1263.000000 37 29 27
210.567398 -245.661926 1263.000000 38 28 29
212.760773 -245.661926 1263.000000 37 27 28
213.422424 -243.911362 1254.000000 36 25 29
215.600250 -243.911362 1254.000000 36 27 30
217.778000 -243.911362 1254.000000 37 28 31
219.955841 -243.911362 1254.000000 38 29 30
221.247864 -242.938843 1249.000000 37 29 26
223.416946 -242.938843 1249.000000 36 29 23
224.863632 -242.160828 1245.000000 38 29 24
227.025742 -242.160828 1245.000000 37 28 21
229.187943 -242.160828 1245.000000 37 26 20
231.350067 -242.160828 1245.000000 37 26 20
233.512177 -242.160828 1245.000000 39 29 19
