ply
format ascii 1.0
element vertex 1159
property float32 x
property float32 y
property float32 z
property uchar red
property uchar green
property uchar blue
end_header
283.590729 336.107513 1008.000000 30 11 7
288.800751 338.108124 1014.000000 28 10 6
293.187592 339.108459 1017.000000 26 8 4
299.345734 342.109406 1026.000000 24 6 2
304.090332 343.443176 1030.000000 23 5 3
313.044617 349.445099 1048.000000 21 7 6
319.706451 352.779510 1058.000000 18 8 6
328.271729 358.114532 1074.000000 21 10 6
335.402435 361.782379 1085.000000 25 10 7
343.234802 366.117096 1098.000000 29 10 6
354.002136 373.452759 1120.000000 27 6 1
362.365936 378.120941 1134.000000 25 6 0
372.442108 384.456299 1153.000000 28 12 0
381.670685 389.791321 1169.000000 29 16 0
392.330353 396.460144 1189.000000 33 20 3
399.127686 399.127625 1197.000000 42 25 5
409.012817 404.796143 1214.000000 46 26 2
422.079498 413.465576 1240.000000 49 24 4
431.200409 418.133728 1254.000000 44 22 1
443.544647 425.802826 1277.000000 39 19 10
452.891418 430.471008 1291.000000 26 11 8
464.461121 437.139801 1311.000000 19 6 13
474.380981 442.141388 1326.000000 14 2 12
480.792664 443.808594 1331.000000 28 7 12
485.415680 443.808594 1331.000000 26 4 6
505.870178 458.146545 1374.000000 22 2 3
514.730652 461.814331 1385.000000 11 0 1
-421.468170 253.414398 768.000000 29 15 12
-418.800629 253.414398 768.000000 30 15 10
-417.216797 254.074326 770.000000 28 13 10
-343.662018 253.084427 767.000000 41 17 13
-341.442566 253.414398 768.000000 37 19 9
-338.333893 253.084427 767.000000 37 20 13
-334.794586 252.424500 765.000000 40 22 22
-332.137482 252.424500 765.000000 38 20 20
-328.619019 251.764542 763.000000 36 21 16
-325.968872 251.764542 763.000000 35 20 13
-322.471222 251.104614 761.000000 32 17 10
-319.828033 251.104614 761.000000 36 21 14
-254.414719 251.764542 763.000000 6 0 2
-251.104630 251.104614 761.000000 12 3 4
-249.114395 251.764542 763.000000 12 2 1
-245.495178 250.774643 760.000000 13 2 0
-242.855469 250.774643 760.000000 15 4 2
-240.215744 250.774643 760.000000 13 3 2
-236.950790 250.114716 758.000000 11 3 1
-235.245392 251.104614 761.000000 7 3 2
-232.602158 251.104614 761.000000 7 3 0
-230.563339 251.764542 763.000000 6 2 1
-227.315765 251.104614 761.000000 7 3 4
-224.672562 251.104614 761.000000 6 1 5
-221.737579 250.774643 760.000000 4 2 5
-219.097839 250.774643 760.000000 3 1 4
-215.888504 250.114716 758.000000 3 1 4
-213.255722 250.114716 758.000000 4 2 3
-211.178665 250.774643 760.000000 4 2 3
-208.813324 251.104614 761.000000 4 2 3
-205.899200 250.774643 760.000000 3 1 2
-203.259460 250.774643 760.000000 3 1 2
-200.091782 250.114716 758.000000 5 1 2
-197.459000 250.114716 758.000000 5 1 2
-195.340240 250.774643 760.000000 5 1 2
-192.700531 250.774643 760.000000 6 2 3
-189.560638 250.114716 758.000000 7 1 1
-186.927841 250.114716 758.000000 6 0 0
-184.295059 250.114716 758.000000 6 0 0
-181.662262 250.114716 758.000000 7 1 3
-179.029480 250.114716 758.000000 8 2 4
-176.862137 250.774643 760.000000 6 0 0
-174.222382 250.774643 760.000000 9 3 3
-171.582657 250.774643 760.000000 7 2 0
-168.942917 250.774643 760.000000 7 1 3
-165.865555 250.114716 758.000000 7 1 3
-163.663467 250.774643 760.000000 6 0 2
-161.023712 250.774643 760.000000 5 1 2
-158.384003 250.774643 760.000000 7 3 4
-155.744247 250.774643 760.000000 6 2 3
-152.701614 250.114716 758.000000 5 1 2
-150.464798 250.774643 760.000000 6 2 1
-147.436050 250.114716 758.000000 4 2 3
-144.803268 250.114716 758.000000 7 1 3
-142.170471 250.114716 758.000000 9 0 3
-139.905869 250.774643 760.000000 6 0 2
-136.904892 250.114716 758.000000 4 2 5
-134.272095 250.114716 758.000000 4 4 6
-131.639328 250.114716 758.000000 4 2 5
-129.006531 250.114716 758.000000 7 2 6
-126.707207 250.774643 760.000000 3 1 2
-124.067459 250.774643 760.000000 4 3 1
-121.427711 250.774643 760.000000 6 2 1
-118.475395 250.114716 758.000000 6 2 1
-115.842598 250.114716 758.000000 6 0 0
-113.209831 250.114716 758.000000 5 1 0
-110.577034 250.114716 758.000000 6 2 1
-107.944237 250.114716 758.000000 4 3 1
-105.311462 250.114716 758.000000 5 2 0
-102.678665 250.114716 758.000000 10 2 0
-100.045898 250.114716 758.000000 12 0 4
-97.413101 250.114716 758.000000 14 2 6
-94.780304 250.114716 758.000000 17 6 4
-92.147530 250.114716 758.000000 26 12 3
-89.514732 250.114716 758.000000 37 17 6
-86.881966 250.114716 758.000000 43 19 9
-84.249168 250.114716 758.000000 49 22 11
-81.616371 250.114716 758.000000 49 21 20
-78.983597 250.114716 758.000000 49 21 20
-76.350800 250.114716 758.000000 49 20 25
-73.718033 250.114716 758.000000 50 24 11
-71.085236 250.114716 758.000000 53 27 12
-68.452438 250.114716 758.000000 49 24 4
-65.819664 250.114716 758.000000 47 20 9
-63.186867 250.114716 758.000000 52 22 11
-60.554096 250.114716 758.000000 55 24 4
-57.921299 250.114716 758.000000 57 24 15
-55.288506 250.114716 758.000000 53 21 8
-52.655731 250.114716 758.000000 52 21 3
-50.022934 250.114716 758.000000 57 25 14
-47.390163 250.114716 758.000000 61 29 16
-44.757366 250.114716 758.000000 56 23 18
-42.124569 250.114716 758.000000 52 22 22
-39.491798 250.114716 758.000000 55 25 27
-36.859001 250.114716 758.000000 65 31 30
-34.135925 249.454788 756.000000 64 32 7
-31.468395 249.124817 755.000000 71 40 9
-28.884224 249.454788 756.000000 78 49 19
-26.258400 249.454788 756.000000 77 52 12
-23.695070 250.114716 758.000000 76 50 35
-21.006725 249.454788 756.000000 80 50 39
-18.380875 249.454788 756.000000 83 53 27
-15.734185 249.124817 755.000000 90 60 32
-13.111833 249.124817 755.000000 93 60 51
-10.489457 249.124817 755.000000 90 53 61
-7.867105 249.124817 755.000000 90 54 56
-5.244729 249.124817 755.000000 92 55 46
-2.622351 249.124817 755.000000 91 55 41
0.000000 249.124817 755.000000 87 53 28
2.615430 248.464890 753.000000 89 53 41
5.230860 248.464890 753.000000 86 52 43
7.867130 249.124817 755.000000 83 56 29
10.461670 248.464890 753.000000 83 58 27
13.111833 249.124817 755.000000 82 54 42
15.734209 249.124817 755.000000 81 51 49
18.356585 249.124817 755.000000 81 53 41
20.978962 249.124817 755.000000 77 51 26
23.601290 249.124817 755.000000 86 57 53
26.154200 248.464890 753.000000 73 42 39
28.846043 249.124817 755.000000 66 38 14
31.385059 248.464890 753.000000 66 40 13
34.000488 248.464890 753.000000 69 44 22
36.615868 248.464890 753.000000 60 38 17
39.231300 248.464890 753.000000 63 38 31
41.846729 248.464890 753.000000 53 33 24
44.580254 249.124817 755.000000 63 39 29
47.202629 249.124817 755.000000 67 39 27
49.824959 249.124817 755.000000 66 38 17
52.447330 249.124817 755.000000 71 45 22
55.069706 249.124817 755.000000 65 38 19
57.692085 249.124817 755.000000 68 39 33
60.314461 249.124817 755.000000 77 44 51
62.936790 249.124817 755.000000 69 42 33
65.385498 248.464890 753.000000 79 51 39
68.000931 248.464890 753.000000 85 56 38
70.616356 248.464890 753.000000 88 53 51
73.231789 248.464890 753.000000 88 55 40
75.847168 248.464890 753.000000 79 48 30
78.462601 248.464890 753.000000 69 43 20
81.078026 248.464890 753.000000 73 45 41
83.693459 248.464890 753.000000 73 42 39
86.308891 248.464890 753.000000 90 61 47
88.924271 248.464890 753.000000 98 69 61
91.539696 248.464890 753.000000 105 74 72
94.155128 248.464890 753.000000 107 75 60
96.770561 248.464890 753.000000 109 76 57
99.253998 248.134918 752.000000 110 79 61
102.001366 248.464890 753.000000 108 81 52
104.616798 248.464890 753.000000 117 82 63
107.517036 249.124817 755.000000 113 78 56
110.139412 249.124817 755.000000 111 76 70
112.761795 249.124817 755.000000 112 80 69
115.384125 249.124817 755.000000 107 78 64
118.006500 249.124817 755.000000 105 78 48
120.628876 249.124817 755.000000 106 78 41
122.924759 248.464890 753.000000 108 74 46
125.540192 248.464890 753.000000 100 78 37
128.155563 248.464890 753.000000 102 77 47
130.770996 248.464890 753.000000 96 62 37
133.386429 248.464890 753.000000 93 56 40
136.363083 249.124817 755.000000 88 56 33
138.985458 249.124817 755.000000 85 52 47
141.607788 249.124817 755.000000 86 54 41
144.230164 249.124817 755.000000 91 55 31
146.852554 249.124817 755.000000 93 60 27
149.474915 249.124817 755.000000 85 56 16
151.694382 248.464890 753.000000 83 59 15
154.104843 248.134918 752.000000 68 45 13
156.716797 248.134918 752.000000 35 15 6
159.540634 248.464890 753.000000 15 0 10
162.156052 248.464890 753.000000 10 0 13
164.771484 248.464890 753.000000 6 1 7
167.386871 248.464890 753.000000 15 3 7
170.453827 249.124817 755.000000 17 1 4
173.076218 249.124817 755.000000 24 4 13
175.698578 249.124817 755.000000 36 15 12
177.140030 247.474991 750.000000 49 27 16
179.744980 247.474991 750.000000 63 42 15
244.175339 305.219147 925.000000 46 21 14
261.708771 318.747772 966.000000 34 14 7
266.710297 320.727570 972.000000 31 13 1
271.475739 322.377411 977.000000 28 10 8
275.713226 323.367310 980.000000 27 9 9
288.800751 334.586182 1014.000000 26 6 5
294.052429 336.565979 1020.000000 26 7 3
299.345734 338.545776 1026.000000 25 7 3
305.861725 341.845428 1036.000000 21 6 1
313.044617 345.805054 1048.000000 20 7 1
320.613007 350.094604 1061.000000 20 9 5
328.271729 354.384155 1074.000000 25 9 9
334.165894 356.693939 1081.000000 34 14 16
343.234802 362.303375 1098.000000 38 12 15
348.312805 363.623230 1102.000000 29 3 4
364.922302 376.821930 1142.000000 24 3 2
375.026276 383.091278 1161.000000 22 9 3
381.670685 385.731018 1169.000000 23 13 4
385.731018 385.731018 1169.000000 27 17 7
400.794891 396.619904 1202.000000 37 19 5
409.012817 400.579529 1214.000000 42 21 2
425.142975 412.128357 1249.000000 46 21 1
432.919708 415.428009 1259.000000 48 25 9
440.418671 418.397705 1268.000000 39 21 11
452.891418 425.986938 1291.000000 26 12 11
466.232513 434.236084 1316.000000 20 8 12
476.169739 439.185577 1331.000000 18 3 10
482.598785 440.835449 1336.000000 23 4 6
501.097778 453.374207 1374.000000 31 11 10
511.760956 458.653656 1390.000000 27 7 6
516.588867 458.653656 1390.000000 14 2 2
-418.255310 250.420380 767.000000 31 15 18
-415.591278 250.420380 767.000000 25 9 12
-409.158661 253.032318 775.000000 25 17 28
-405.417908 252.379333 773.000000 24 13 27
-337.451691 249.767395 765.000000 37 20 12
-334.794586 249.767395 765.000000 37 22 3
-332.137482 249.767395 765.000000 39 23 10
-328.619019 249.114395 763.000000 39 22 15
-326.823303 249.767395 765.000000 39 23 8
-323.318695 249.114395 763.000000 38 23 2
-320.668549 249.114395 763.000000 38 22 6
-318.018402 249.114395 763.000000 39 21 21
-314.541565 248.461411 761.000000 44 24 35
-253.414413 248.134918 760.000000 7 5 10
-250.774658 248.134918 760.000000 10 5 9
-248.461426 248.461411 761.000000 9 3 7
-245.495178 248.134918 760.000000 11 2 5
-243.175003 248.461411 761.000000 18 8 9
-240.531799 248.461411 761.000000 15 6 7
-237.575989 248.134918 760.000000 10 4 6
-234.936249 248.134918 760.000000 8 4 5
-232.296509 248.134918 760.000000 7 3 4
-229.656799 248.134918 760.000000 7 3 4
-227.315765 248.461411 761.000000 8 3 7
-224.672562 248.461411 761.000000 7 2 6
-221.737579 248.134918 760.000000 5 0 4
-219.097839 248.134918 760.000000 7 2 6
-215.888504 247.481934 758.000000 7 5 8
-213.255722 247.481934 758.000000 5 3 4
-211.178665 248.134918 760.000000 6 2 3
-208.813324 248.461411 761.000000 7 3 4
-206.170120 248.461411 761.000000 6 2 3
-203.526901 248.461411 761.000000 5 1 2
-200.619705 248.134918 760.000000 7 3 4
-197.979996 248.134918 760.000000 8 2 4
-195.597290 248.461411 761.000000 7 1 3
-192.700531 248.134918 760.000000 7 1 3
-190.060791 248.134918 760.000000 7 1 1
-187.421051 248.134918 760.000000 7 1 1
-184.781326 248.134918 760.000000 7 1 3
-182.141586 248.134918 760.000000 8 2 4
-179.501862 248.134918 760.000000 8 2 4
-176.396713 247.481934 758.000000 8 2 4
-174.222382 248.134918 760.000000 10 4 4
-171.808426 248.461411 761.000000 8 2 2
-168.942917 248.134918 760.000000 10 1 2
-166.303192 248.134918 760.000000 12 3 6
-163.663467 248.134918 760.000000 7 1 3
-161.023712 248.134918 760.000000 7 1 3
-158.384003 248.134918 760.000000 9 3 5
-155.744247 248.134918 760.000000 8 2 4
-153.104538 248.134918 760.000000 5 1 2
-150.464798 248.134918 760.000000 5 1 2
-147.436050 247.481934 758.000000 4 2 3
-144.803268 247.481934 758.000000 8 2 4
-142.170471 247.481934 758.000000 11 2 5
-139.905869 248.134918 760.000000 9 3 5
-137.266129 248.134918 760.000000 6 1 5
-134.626373 248.134918 760.000000 4 4 6
-131.639328 247.481934 758.000000 4 2 5
-129.006531 247.481934 758.000000 7 2 6
-126.707207 248.134918 760.000000 4 2 3
-124.067459 248.134918 760.000000 4 3 1
-121.427711 248.134918 760.000000 7 3 2
-118.475395 247.481934 758.000000 7 3 2
-115.842598 247.481934 758.000000 6 0 0
-113.209831 247.481934 758.000000 8 2 2
-110.577034 247.481934 758.000000 8 4 3
-107.944237 247.481934 758.000000 8 4 3
-105.311462 247.481934 758.000000 5 4 2
-102.678665 247.481934 758.000000 9 3 3
-100.045898 247.481934 758.000000 12 1 5
-97.413101 247.481934 758.000000 13 3 2
-94.780304 247.481934 758.000000 20 9 3
-92.147530 247.481934 758.000000 29 16 7
-89.514732 247.481934 758.000000 38 20 10
-86.881966 247.481934 758.000000 49 24 19
-84.249168 247.481934 758.000000 53 22 27
-81.616371 247.481934 758.000000 52 20 31
-78.983597 247.481934 758.000000 52 21 26
-76.350800 247.481934 758.000000 56 25 33
-73.718033 247.481934 758.000000 54 25 19
-71.085236 247.481934 758.000000 53 24 16
-68.452438 247.481934 758.000000 54 27 10
-65.819664 247.481934 758.000000 59 32 15
-63.186867 247.481934 758.000000 60 30 28
-60.394325 246.828934 756.000000 57 27 25
-57.921299 247.481934 758.000000 59 28 34
-55.288506 247.481934 758.000000 58 28 30
-52.655731 247.481934 758.000000 58 29 23
-50.022934 247.481934 758.000000 62 32 32
-47.390163 247.481934 758.000000 64 35 29
-44.757366 247.481934 758.000000 62 32 34
-42.124569 247.481934 758.000000 62 33 27
-39.491798 247.481934 758.000000 65 34 29
-36.859001 247.481934 758.000000 66 32 31
-34.135925 246.828934 756.000000 75 42 25
-31.510073 246.828934 756.000000 77 45 24
-28.884224 246.828934 756.000000 74 43 23
-26.258400 246.828934 756.000000 71 44 17
-23.632549 246.828934 756.000000 77 48 40
-21.006725 246.828934 756.000000 85 53 54
-18.356562 246.502441 755.000000 83 49 47
-15.734185 246.502441 755.000000 87 54 47
-13.077100 245.849472 753.000000 91 58 53
-10.461670 245.849472 753.000000 93 60 51
-7.867105 246.502441 755.000000 94 62 47
-5.244729 246.502441 755.000000 94 61 54
-2.622351 246.502441 755.000000 98 60 73
0.000000 245.849472 753.000000 90 53 45
2.615430 245.849472 753.000000 93 58 54
5.230860 245.849472 753.000000 90 55 61
7.846290 245.849472 753.000000 89 55 53
10.461670 245.849472 753.000000 87 58 44
13.111833 246.502441 755.000000 90 61 47
15.734209 246.502441 755.000000 84 52 41
18.356585 246.502441 755.000000 86 55 37
20.978962 246.502441 755.000000 80 55 35
23.601290 246.502441 755.000000 84 59 55
26.154200 245.849472 753.000000 65 40 33
28.769630 245.849472 753.000000 61 41 8
31.385059 245.849472 753.000000 60 39 12
34.090797 246.502441 755.000000 68 45 39
36.713123 246.502441 755.000000 60 39 34
39.335499 246.502441 755.000000 60 42 28
41.846729 245.849472 753.000000 58 38 27
44.462158 245.849472 753.000000 65 43 32
47.077591 245.849472 753.000000 66 38 24
49.692970 245.849472 753.000000 65 38 17
52.308399 245.849472 753.000000 63 39 15
55.069706 246.502441 755.000000 75 52 36
57.692085 246.502441 755.000000 76 50 51
60.314461 246.502441 755.000000 79 48 64
62.936790 246.502441 755.000000 77 48 40
65.559166 246.502441 755.000000 84 54 43
68.181541 246.502441 755.000000 89 56 47
70.616356 245.849472 753.000000 94 55 60
73.231789 245.849472 753.000000 93 56 48
75.847168 245.849472 753.000000 80 47 30
78.462601 245.849472 753.000000 76 45 24
80.970352 245.522980 752.000000 82 51 48
83.693459 245.849472 753.000000 90 53 61
86.308891 245.849472 753.000000 103 67 81
88.924271 245.849472 753.000000 101 70 65
91.539696 245.849472 753.000000 104 74 64
94.155128 245.849472 753.000000 111 77 67
96.770561 245.849472 753.000000 113 78 56
99.385986 245.849472 753.000000 111 80 60
102.001366 245.849472 753.000000 106 78 54
104.616798 245.849472 753.000000 111 82 68
107.517036 246.502441 755.000000 111 81 73
110.139412 246.502441 755.000000 116 85 83
112.761795 246.502441 755.000000 117 87 79
115.384125 246.502441 755.000000 110 79 77
118.006500 246.502441 755.000000 106 78 66
120.628876 246.502441 755.000000 107 78 72
122.924759 245.849472 753.000000 105 77 65
125.540192 245.849472 753.000000 102 78 50
128.155563 245.849472 753.000000 106 78 66
131.118332 246.502441 755.000000 108 74 62
133.740707 246.502441 755.000000 98 66 45
136.363083 246.502441 755.000000 87 58 26
138.985458 246.502441 755.000000 81 51 43
141.607788 246.502441 755.000000 85 56 52
144.230164 246.502441 755.000000 87 55 40
146.852554 246.502441 755.000000 92 63 33
149.474915 246.502441 755.000000 85 63 14
151.694382 245.849472 753.000000 78 61 7
154.309769 245.849472 753.000000 41 26 0
156.925201 245.849472 753.000000 14 0 0
159.540634 245.849472 753.000000 14 1 10
162.156052 245.849472 753.000000 13 1 3
164.771484 245.849472 753.000000 17 6 4
167.831451 246.502441 755.000000 28 7 16
170.453827 246.502441 755.000000 48 25 31
240.962494 302.006317 925.000000 59 32 41
244.703278 302.659302 927.000000 45 21 19
253.539459 309.515656 948.000000 43 24 7
258.186798 311.148132 953.000000 37 19 7
267.259094 318.004486 974.000000 27 10 3
272.309326 319.963440 980.000000 23 4 6
276.557220 320.942932 983.000000 25 6 8
288.800751 331.064240 1014.000000 24 6 6
294.052429 333.023163 1020.000000 25 7 5
300.512787 336.288116 1030.000000 25 7 3
308.518829 341.185516 1045.000000 23 5 1
314.239410 343.470978 1052.000000 21 6 1
319.706451 345.429932 1058.000000 23 8 3
328.271729 350.653839 1074.000000 33 9 9
334.165894 352.939270 1081.000000 49 19 21
340.108795 355.224701 1088.000000 44 12 15
358.427155 370.243439 1134.000000 37 7 9
364.922302 372.855377 1142.000000 30 9 8
373.734192 377.752777 1157.000000 26 12 9
380.364716 380.364716 1165.000000 26 17 12
393.650238 389.506500 1193.000000 28 20 17
402.128662 393.750946 1206.000000 43 26 19
409.012817 396.362885 1214.000000 45 22 14
425.142975 407.790161 1249.000000 43 19 7
431.200409 409.422638 1254.000000 43 21 8
440.418671 413.993500 1268.000000 44 25 18
454.645447 423.135345 1296.000000 27 12 9
466.232513 429.665192 1316.000000 18 4 3
476.169739 434.562592 1331.000000 19 3 3
490.545776 443.377899 1358.000000 26 10 10
498.909576 446.642853 1368.000000 24 9 6
513.969971 455.784668 1396.000000 24 9 4
518.818787 455.784668 1396.000000 17 6 2
-418.800629 248.079330 768.000000 29 10 12
-417.216797 248.725403 770.000000 27 9 9
-414.542328 248.725403 770.000000 31 13 13
-411.867859 248.725403 770.000000 29 11 11
-410.256256 249.371429 772.000000 29 10 12
-407.574799 249.371429 772.000000 31 20 28
-405.417908 249.694427 773.000000 25 14 20
-402.733002 249.694427 773.000000 26 13 22
-333.919312 246.464264 763.000000 36 19 12
-332.137482 247.110291 765.000000 37 19 15
-328.619019 246.464264 763.000000 44 24 23
-325.968872 246.464264 763.000000 42 24 14
-323.318695 246.464264 763.000000 39 21 7
-320.668549 246.464264 763.000000 35 16 9
-318.018402 246.464264 763.000000 35 14 21
-316.194885 247.110291 765.000000 37 15 27
-313.537750 247.110291 765.000000 40 18 31
-253.414413 245.495193 760.000000 4 2 7
-250.774658 245.495193 760.000000 8 3 9
-248.134918 245.495193 760.000000 7 1 5
-245.495178 245.495193 760.000000 10 1 4
-242.855469 245.495193 760.000000 13 3 4
-240.531799 245.818207 761.000000 11 2 3
-237.888596 245.818207 761.000000 10 1 2
-235.245392 245.818207 761.000000 8 2 2
-232.602158 245.818207 761.000000 7 3 4
-229.656799 245.495193 760.000000 7 2 6
-227.315765 245.818207 761.000000 8 3 7
-224.672562 245.818207 761.000000 6 1 5
-222.029358 245.818207 761.000000 6 1 5
-219.097839 245.495193 760.000000 7 2 6
-216.458130 245.495193 760.000000 7 3 4
-213.818420 245.495193 760.000000 6 2 3
-211.178665 245.495193 760.000000 6 0 0
-208.813324 245.818207 761.000000 8 2 2
-206.170120 245.818207 761.000000 8 2 2
-203.526901 245.818207 761.000000 7 1 1
-200.619705 245.495193 760.000000 8 2 2
-197.979996 245.495193 760.000000 7 1 1
-195.597290 245.818207 761.000000 7 1 1
-192.700531 245.495193 760.000000 8 2 2
-190.060791 245.495193 760.000000 7 1 1
-187.421051 245.495193 760.000000 6 0 2
-184.781326 245.495193 760.000000 7 1 3
-182.141586 245.495193 760.000000 8 2 6
-179.501862 245.495193 760.000000 9 3 7
-176.862137 245.495193 760.000000 9 3 5
-174.451630 245.818207 761.000000 9 3 5
-171.808426 245.818207 761.000000 8 2 2
-169.165222 245.818207 761.000000 11 2 3
-166.303192 245.495193 760.000000 10 1 2
-163.663467 245.495193 760.000000 10 1 2
-161.023712 245.495193 760.000000 10 1 4
-158.384003 245.495193 760.000000 8 2 4
-155.744247 245.495193 760.000000 7 1 3
-153.306000 245.818207 761.000000 6 0 2
-150.464798 245.495193 760.000000 6 0 2
-147.436050 244.849167 758.000000 4 2 3
-144.803268 244.849167 758.000000 8 2 4
-142.170471 244.849167 758.000000 11 2 5
-139.537689 244.849167 758.000000 9 3 5
-136.904892 244.849167 758.000000 6 2 3
-134.626373 245.495193 760.000000 4 4 4
-131.639328 244.849167 758.000000 4 2 3
-129.346924 245.495193 760.000000 7 1 3
-126.873917 245.818207 761.000000 3 2 0
-124.557198 246.464264 763.000000 3 2 0
-121.427711 245.495193 760.000000 5 1 0
-118.475395 244.849167 758.000000 6 2 1
-115.842598 244.849167 758.000000 7 1 1
-113.209831 244.849167 758.000000 7 1 1
-110.577034 244.849167 758.000000 7 1 1
-107.944237 244.849167 758.000000 8 2 2
-105.311462 244.849167 758.000000 5 3 4
-102.678665 244.849167 758.000000 8 2 4
-100.045898 244.849167 758.000000 10 0 1
-97.413101 244.849167 758.000000 13 2 0
-94.780304 244.849167 758.000000 17 4 0
-92.147530 244.849167 758.000000 27 13 2
-89.514732 244.849167 758.000000 36 16 9
-86.881966 244.849167 758.000000 45 17 16
-84.249168 244.849167 758.000000 48 15 24
-81.616371 244.849167 758.000000 49 16 27
-78.983597 244.849167 758.000000 50 18 19
-76.350800 244.849167 758.000000 54 22 27
-73.718033 244.849167 758.000000 52 21 18
-71.085236 244.849167 758.000000 50 18 19
-68.271828 244.203094 756.000000 53 23 12
-65.819664 244.849167 758.000000 56 27 9
-63.020145 244.203094 756.000000 54 29 24
-60.394325 244.203094 756.000000 55 30 25
-57.768475 244.203094 756.000000 56 30 33
-55.142624 244.203094 756.000000 56 31 26
-52.516800 244.203094 756.000000 57 33 21
-49.890945 244.203094 756.000000 58 34 24
-47.390163 244.849167 758.000000 59 36 18
-44.757366 244.849167 758.000000 63 39 27
-42.124569 244.849167 758.000000 62 36 23
-39.491798 244.849167 758.000000 67 37 29
-36.761749 244.203094 756.000000 74 40 41
-34.135925 244.203094 756.000000 78 44 43
-31.510073 244.203094 756.000000 80 47 42
-28.884224 244.203094 756.000000 81 48 41
-26.258400 244.203094 756.000000 87 57 46
-23.695070 244.849167 758.000000 86 56 56
-20.978937 243.880096 755.000000 91 57 56
-18.356562 243.880096 755.000000 86 52 50
-15.734185 243.880096 755.000000 88 53 49
-13.077100 243.234055 753.000000 94 58 58
-10.461670 243.234055 753.000000 90 57 52
-7.867105 243.880096 755.000000 93 63 53
-5.244729 243.880096 755.000000 91 61 51
-2.622351 243.880096 755.000000 93 62 59
0.000000 243.880096 755.000000 91 57 48
2.622377 243.880096 755.000000 97 62 58
5.244753 243.880096 755.000000 95 60 66
7.846290 243.234055 753.000000 97 61 73
10.461670 243.234055 753.000000 91 57 56
13.077100 243.234055 753.000000 91 59 38
15.734209 243.880096 755.000000 84 53 24
18.356585 243.880096 755.000000 88 53 31
20.978962 243.880096 755.000000 84 53 25
23.601290 243.880096 755.000000 81 48 31
26.154200 243.234055 753.000000 78 45 26
28.846043 243.880096 755.000000 77 47 13
31.468418 243.880096 755.000000 73 43 9
34.090797 243.880096 755.000000 74 43 23
36.713123 243.880096 755.000000 71 42 28
39.335499 243.880096 755.000000 66 39 20
41.846729 243.234055 753.000000 66 45 18
44.580254 243.880096 755.000000 70 46 18
47.077591 243.234055 753.000000 65 40 9
49.692970 243.234055 753.000000 67 43 7
52.238934 242.911026 752.000000 72 49 15
54.923828 243.234055 753.000000 67 47 23
57.692085 243.880096 755.000000 57 32 28
60.314461 243.880096 755.000000 80 49 65
62.936790 243.880096 755.000000 80 47 54
65.385498 243.234055 753.000000 87 52 48
68.000931 243.234055 753.000000 93 57 45
70.616356 243.234055 753.000000 98 58 56
73.231789 243.234055 753.000000 95 55 53
75.847168 243.234055 753.000000 85 48 39
78.462601 243.234055 753.000000 77 43 31
80.970352 242.911026 752.000000 85 51 49
83.693459 243.234055 753.000000 93 53 61
86.308891 243.234055 753.000000 101 63 74
88.806175 242.911026 752.000000 98 67 62
91.539696 243.234055 753.000000 102 72 62
94.155128 243.234055 753.000000 107 73 61
97.027580 243.880096 755.000000 109 75 50
99.649963 243.880096 755.000000 110 77 58
102.272293 243.880096 755.000000 101 73 49
104.894661 243.880096 755.000000 108 81 62
107.517036 243.880096 755.000000 106 77 71
110.139412 243.880096 755.000000 108 77 72
112.761795 243.880096 755.000000 104 72 59
115.384125 243.880096 755.000000 95 59 59
118.006500 243.880096 755.000000 96 65 60
120.309326 243.234055 753.000000 106 76 86
122.924759 243.234055 753.000000 103 79 69
125.540192 243.234055 753.000000 107 77 69
128.155563 243.234055 753.000000 110 76 77
131.118332 243.880096 755.000000 112 77 71
133.740707 243.880096 755.000000 103 71 46
136.363083 243.880096 755.000000 92 64 25
138.985458 243.880096 755.000000 84 56 35
141.795349 244.203094 756.000000 84 54 46
144.230164 243.880096 755.000000 86 56 48
146.852554 243.880096 755.000000 82 54 32
149.474915 243.880096 755.000000 81 58 27
151.694382 243.234055 753.000000 30 14 0
154.309769 243.234055 753.000000 18 4 0
156.925201 243.234055 753.000000 10 0 0
159.540634 243.234055 753.000000 14 1 0
161.940704 242.911026 752.000000 28 13 0
164.115036 242.264999 750.000000 58 40 20
167.386871 243.234055 753.000000 77 51 38
244.703278 299.439514 927.000000 49 26 8
253.539459 306.222931 948.000000 52 32 7
259.541382 309.453125 958.000000 48 29 12
263.691956 310.422211 961.000000 32 14 0
273.698669 318.174683 985.000000 19 3 3
277.119904 318.174683 985.000000 19 3 6
291.364044 330.449432 1023.000000 22 6 7
294.917297 330.449432 1023.000000 26 7 9
300.512787 332.710602 1030.000000 26 8 8
307.633118 336.586823 1042.000000 24 6 2
313.044617 338.524933 1048.000000 26 9 2
318.799927 340.786102 1055.000000 26 9 2
329.494324 348.215546 1078.000000 35 10 5
334.165894 349.184601 1081.000000 57 26 21
340.108795 351.445740 1088.000000 44 11 4
358.427155 366.304657 1134.000000 39 9 1
366.200500 370.180908 1146.000000 26 4 0
373.734192 373.734131 1157.000000 20 6 0
379.058746 375.026184 1161.000000 24 14 2
392.330353 384.070770 1189.000000 31 21 9
402.128662 389.562103 1206.000000 41 24 14
409.012817 392.146271 1214.000000 40 20 9
428.546844 406.682159 1259.000000 46 24 11
434.295135 407.974243 1263.000000 46 24 11
440.418671 409.589325 1268.000000 36 17 10
454.645447 418.633911 1296.000000 22 7 2
466.232513 425.094299 1316.000000 19 4 0
476.169739 429.939636 1331.000000 22 4 0
492.351898 440.276245 1363.000000 19 4 1
506.932983 448.997803 1390.000000 22 4 2
518.019897 454.489105 1407.000000 26 8 4
525.136780 456.427246 1413.000000 22 7 0
-419.891266 246.050919 770.000000 28 14 5
-417.216797 246.050919 770.000000 30 13 3
-414.542328 246.050919 770.000000 30 14 1
-412.937653 246.690018 772.000000 32 14 4
-410.256256 246.690018 772.000000 33 14 7
-407.574799 246.690018 772.000000 32 17 12
-404.893402 246.690018 772.000000 29 14 7
-402.212006 246.690018 772.000000 28 15 9
-399.530579 246.690018 772.000000 31 16 19
-332.137482 244.453201 765.000000 36 15 22
-329.480408 244.453201 765.000000 33 14 8
-326.823303 244.453201 765.000000 35 16 9
-323.318695 243.814102 763.000000 36 16 15
-320.668549 243.814102 763.000000 37 16 21
-318.018402 243.814102 763.000000 39 13 26
-316.194885 244.453201 765.000000 40 14 25
-313.537750 244.453201 765.000000 38 13 19
-250.114731 242.216354 758.000000 10 4 8
-247.481934 242.216354 758.000000 10 1 4
-245.495178 242.855438 760.000000 13 3 4
-242.855469 242.855438 760.000000 13 1 1
-240.531799 243.175018 761.000000 13 1 1
-237.888596 243.175018 761.000000 13 1 1
-235.245392 243.175018 761.000000 10 0 0
-232.602158 243.175018 761.000000 6 0 2
-229.656799 242.855438 760.000000 7 2 6
-227.315765 243.175018 761.000000 8 3 7
-224.672562 243.175018 761.000000 7 2 6
-222.029358 243.175018 761.000000 6 2 3
-219.386124 243.175018 761.000000 6 2 3
-216.458130 242.855438 760.000000 7 1 3
-213.818420 242.855438 760.000000 9 3 5
-211.178665 242.855438 760.000000 9 3 3
-208.538910 242.855438 760.000000 9 3 3
-205.899200 242.855438 760.000000 8 2 2
-203.259460 242.855438 760.000000 8 2 2
-200.619705 242.855438 760.000000 7 1 1
-198.240494 243.175018 761.000000 7 1 1
-195.597290 243.175018 761.000000 8 2 2
-192.954086 243.175018 761.000000 9 3 3
-190.310867 243.175018 761.000000 8 2 2
-187.667664 243.175018 761.000000 6 0 2
-184.781326 242.855438 760.000000 9 3 5
-182.381256 243.175018 761.000000 9 3 7
-179.501862 242.855438 760.000000 8 2 6
-176.862137 242.855438 760.000000 8 2 4
-174.451630 243.175018 761.000000 7 1 3
-171.808426 243.175018 761.000000 7 1 1
-169.165222 243.175018 761.000000 7 0 0
-166.303192 242.855438 760.000000 9 0 1
-163.663467 242.855438 760.000000 9 0 1
-161.235596 243.175018 761.000000 7 0 0
-158.592392 243.175018 761.000000 7 1 3
-155.949188 243.175018 761.000000 10 4 6
-153.306000 243.175018 761.000000 5 0 1
-150.464798 242.855438 760.000000 7 1 3
-147.825043 242.855438 760.000000 6 2 3
-144.803268 242.216354 758.000000 7 1 3
-142.170471 242.216354 758.000000 9 0 3
-139.537689 242.216354 758.000000 7 1 3
-136.904892 242.216354 758.000000 5 1 2
-134.626373 242.855438 760.000000 3 1 2
-131.986664 242.855438 760.000000 5 1 2
-129.346924 242.855438 760.000000 7 1 3
-126.873917 243.175018 761.000000 7 3 2
-124.230713 243.175018 761.000000 5 1 0
-121.427711 242.855438 760.000000 7 3 2
-118.475395 242.216354 758.000000 7 3 2
-116.148254 242.855438 760.000000 7 3 2
-113.209831 242.216354 758.000000 8 2 2
-110.577034 242.216354 758.000000 7 1 1
-107.944237 242.216354 758.000000 8 2 2
-105.589333 242.855438 760.000000 8 2 4
-102.678665 242.216354 758.000000 11 2 5
-100.045898 242.216354 758.000000 12 0 2
-97.413101 242.216354 758.000000 16 2 0
-94.780304 242.216354 758.000000 21 7 0
-92.147530 242.216354 758.000000 31 14 4
-89.514732 242.216354 758.000000 47 23 19
-86.881966 242.216354 758.000000 56 25 30
-84.249168 242.216354 758.000000 51 19 22
-81.616371 242.216354 758.000000 46 14 17
-78.983597 242.216354 758.000000 52 22 14
-76.350800 242.216354 758.000000 58 26 27
-73.718033 242.216354 758.000000 55 24 21
-71.085236 242.216354 758.000000 54 22 25
-68.271828 241.577271 756.000000 54 24 14
-65.645996 241.577271 756.000000 47 18 2
-63.020145 241.577271 756.000000 53 23 12
-60.394325 241.577271 756.000000 61 29 14
-57.692062 241.257721 755.000000 66 33 26
-55.069683 241.257721 755.000000 62 30 15
-52.516800 241.577271 756.000000 61 31 7
-49.890945 241.577271 756.000000 63 32 11
-47.265125 241.577271 756.000000 62 33 1
-44.639275 241.577271 756.000000 64 34 8
-42.013424 241.577271 756.000000 63 36 9
-39.387600 241.577271 756.000000 67 38 20
-36.761749 241.577271 756.000000 71 41 33
-34.135925 241.577271 756.000000 81 47 46
-31.510073 241.577271 756.000000 77 44 39
-28.884224 241.577271 756.000000 81 51 40
-26.258400 241.577271 756.000000 84 54 44
-23.632549 241.577271 756.000000 88 58 50
-20.978937 241.257721 755.000000 88 59 27
-18.356562 241.257721 755.000000 92 61 40
-15.692505 240.618637 753.000000 89 54 58
-13.077100 240.618637 753.000000 96 58 69
-10.461670 240.618637 753.000000 93 59 57
-7.867105 241.257721 755.000000 90 62 41
-5.244729 241.257721 755.000000 91 65 40
-2.622351 241.257721 755.000000 89 63 40
0.000000 241.257721 755.000000 92 64 25
2.622377 241.257721 755.000000 95 66 36
5.244753 241.257721 755.000000 92 62 51
7.867130 241.257721 755.000000 99 66 59
10.489457 241.257721 755.000000 99 67 54
13.111833 241.257721 755.000000 90 57 40
15.734209 241.257721 755.000000 88 53 34
18.356585 241.257721 755.000000 89 52 33
20.978962 241.257721 755.000000 88 52 28
23.601290 241.257721 755.000000 88 52 20
26.154200 240.618637 753.000000 85 49 13
28.846043 241.257721 755.000000 78 42 10
31.468418 241.257721 755.000000 78 42 10
34.090797 241.257721 755.000000 70 36 1
36.713123 241.257721 755.000000 72 39 8
39.335499 241.257721 755.000000 65 33 10
41.957874 241.257721 755.000000 67 39 17
44.580254 241.257721 755.000000 70 40 16
47.077591 240.618637 753.000000 71 42 12
49.692970 240.618637 753.000000 73 45 8
52.238934 240.299088 752.000000 71 48 7
54.923828 240.618637 753.000000 68 45 11
57.539261 240.618637 753.000000 79 53 36
60.314461 241.257721 755.000000 82 52 50
62.936790 241.257721 755.000000 88 52 66
65.385498 240.618637 753.000000 89 53 53
68.181541 241.257721 755.000000 95 59 45
70.803917 241.257721 755.000000 94 58 42
73.426300 241.257721 755.000000 91 54 45
76.048622 241.257721 755.000000 91 55 43
78.462601 240.618637 753.000000 78 43 37
81.078026 240.618637 753.000000 86 50 54
83.693459 240.618637 753.000000 92 54 53
86.308891 240.618637 753.000000 95 60 40
88.924271 240.618637 753.000000 99 67 56
91.539696 240.618637 753.000000 99 68 63
94.155128 240.618637 753.000000 105 74 54
97.027580 241.257721 755.000000 114 79 59
99.649963 241.257721 755.000000 113 80 61
102.272293 241.257721 755.000000 116 87 57
104.894661 241.257721 755.000000 107 81 46
107.517036 241.257721 755.000000 107 79 58
110.139412 241.257721 755.000000 110 77 60
112.761795 241.257721 755.000000 108 74 49
115.384125 241.257721 755.000000 112 74 63
118.006500 241.257721 755.000000 111 78 63
120.309326 240.618637 753.000000 107 75 78
122.924759 240.618637 753.000000 104 79 59
125.540192 240.618637 753.000000 107 74 55
128.155563 240.618637 753.000000 108 73 54
131.118332 241.257721 755.000000 116 79 60
133.740707 241.257721 755.000000 110 73 55
136.363083 241.257721 755.000000 104 69 50
138.985458 241.257721 755.000000 90 55 36
141.607788 241.257721 755.000000 90 56 46
144.230164 241.257721 755.000000 96 64 65
146.852554 241.257721 755.000000 88 59 45
149.078964 240.618637 753.000000 39 12 1
151.694382 240.618637 753.000000 17 0 0
154.309769 240.618637 753.000000 19 0 2
156.925201 240.618637 753.000000 48 31 24
159.328751 240.299088 752.000000 84 67 51
161.510010 239.659988 750.000000 80 56 32
252.737106 301.971588 945.000000 53 29 1
256.832184 302.930237 948.000000 50 28 5
269.728638 314.114349 983.000000 39 18 1
273.698669 314.753448 985.000000 17 2 0
276.557220 314.114349 983.000000 11 0 0
288.800751 324.020294 1014.000000 16 1 4
294.052429 325.937592 1020.000000 21 6 9
301.388062 330.091705 1033.000000 24 8 9
306.747437 332.008972 1039.000000 21 6 3
314.239410 336.163086 1052.000000 22 7 2
317.893372 336.163086 1052.000000 20 5 0
331.633881 346.708130 1085.000000 31 10 7
336.329773 347.666748 1088.000000 57 32 28
344.485199 352.140411 1102.000000 40 11 5
357.478943 361.407257 1131.000000 33 6 0
366.200500 366.200470 1146.000000 35 13 0
373.734192 369.715485 1157.000000 31 14 0
379.058746 370.993652 1161.000000 35 20 0
392.330353 379.940979 1189.000000 45 28 8
400.794891 384.095093 1202.000000 47 30 12
419.457123 397.835602 1245.000000 45 27 7
428.546844 402.309235 1259.000000 39 18 0
434.295135 403.587433 1263.000000 39 20 3
441.807983 406.463318 1272.000000 34 18 5
454.645447 414.132477 1296.000000 24 11 3
468.003906 422.121124 1321.000000 21 6 1
476.169739 425.316589 1331.000000 22 4 0
480.792664 425.316589 1331.000000 24 5 0
506.932983 444.169830 1390.000000 24 5 1
516.179016 448.004425 1402.000000 25 4 3
522.906921 449.602142 1407.000000 29 10 6
-419.821777 241.796097 765.000000 35 19 20
-417.164703 241.796097 765.000000 38 22 25
-417.216797 243.376465 770.000000 34 18 18
-414.542328 243.376465 770.000000 31 13 9
-412.937653 244.008621 772.000000 33 13 12
-410.256256 244.008621 772.000000 36 14 17
-407.574799 244.008621 772.000000 37 13 26
-404.893402 244.008621 772.000000 34 15 19
-401.169983 243.376465 770.000000 30 16 13
-398.495514 243.376465 770.000000 31 17 17
-395.821045 243.376465 770.000000 33 17 20
-330.341766 242.428238 767.000000 38 21 5
-326.823303 241.796097 765.000000 38 20 8
-323.318695 241.163956 763.000000 39 19 18
-320.668549 241.163956 763.000000 42 22 24
-317.184784 240.531799 761.000000 43 16 23
-315.368256 241.163956 763.000000 43 13 21
-313.537750 241.796097 765.000000 37 10 19
-310.067932 241.163956 763.000000 38 10 24
-247.481934 239.583572 758.000000 13 3 4
-245.818192 240.531799 761.000000 14 2 2
-242.855469 240.215714 760.000000 13 2 0
-240.531799 240.531799 761.000000 12 1 0
-237.888596 240.531799 761.000000 13 2 0
-235.245392 240.531799 761.000000 11 0 0
-232.602158 240.531799 761.000000 6 0 0
-229.656799 240.215714 760.000000 6 2 3
-227.315765 240.531799 761.000000 7 3 4
-224.672562 240.531799 761.000000 7 1 3
-222.029358 240.531799 761.000000 9 3 3
-219.386124 240.531799 761.000000 9 3 5
-216.458130 240.215714 760.000000 8 2 4
-213.818420 240.215714 760.000000 8 2 6
-211.178665 240.215714 760.000000 6 0 0
-208.538910 240.215714 760.000000 7 1 1
-205.899200 240.215714 760.000000 6 0 0
-203.259460 240.215714 760.000000 6 2 1
-200.619705 240.215714 760.000000 6 2 1
-197.979996 240.215714 760.000000 6 2 1
-195.597290 240.531799 761.000000 6 2 1
-192.954086 240.531799 761.000000 7 3 2
-190.310867 240.531799 761.000000 8 2 2
-187.421051 240.215714 760.000000 8 2 2
-184.781326 240.215714 760.000000 7 1 3
-182.141586 240.215714 760.000000 8 2 4
-179.501862 240.215714 760.000000 6 0 2
-177.094833 240.531799 761.000000 8 2 4
-174.451630 240.531799 761.000000 9 3 3
-171.808426 240.531799 761.000000 8 2 2
-169.165222 240.531799 761.000000 10 2 0
-166.522034 240.531799 761.000000 13 4 5
-163.663467 240.215714 760.000000 11 5 5
-161.235596 240.531799 761.000000 6 0 0
-158.592392 240.531799 761.000000 9 3 5
-155.949188 240.531799 761.000000 11 5 7
-153.306000 240.531799 761.000000 6 1 5
-150.464798 240.215714 760.000000 10 5 9
-147.825043 240.215714 760.000000 4 2 3
-145.185333 240.215714 760.000000 6 2 3
-142.170471 239.583572 758.000000 9 0 3
-139.537689 239.583572 758.000000 7 1 3
-136.904892 239.583572 758.000000 7 3 2
-134.272095 239.583572 758.000000 5 4 2
-131.639328 239.583572 758.000000 6 2 1
-129.346924 240.215714 760.000000 9 0 1
-126.707207 240.215714 760.000000 7 1 1
-124.067459 240.215714 760.000000 4 0 0
-121.108170 239.583572 758.000000 7 3 2
-118.475395 239.583572 758.000000 8 4 3
-115.842598 239.583572 758.000000 6 2 1
-113.209831 239.583572 758.000000 9 3 3
-110.577034 239.583572 758.000000 10 1 2
-107.944237 239.583572 758.000000 10 1 2
-105.589333 240.215714 760.000000 10 1 2
-102.678665 239.583572 758.000000 12 2 3
-100.045898 239.583572 758.000000 16 2 2
-97.413101 239.583572 758.000000 20 5 2
-94.780304 239.583572 758.000000 19 4 0
-92.147530 239.583572 758.000000 30 13 5
-89.514732 239.583572 758.000000 36 12 10
-86.881966 239.583572 758.000000 49 18 23
-84.249168 239.583572 758.000000 54 25 17
-81.616371 239.583572 758.000000 51 22 14
-78.983597 239.583572 758.000000 47 19 7
-76.350800 239.583572 758.000000 55 25 23
-73.718033 239.583572 758.000000 53 24 18
-71.085236 239.583572 758.000000 56 26 26
-68.271828 238.951431 756.000000 55 26 18
-65.645996 238.951431 756.000000 53 25 13
-63.020145 238.951431 756.000000 53 21 22
-60.394325 238.951431 756.000000 53 22 20
-57.692062 238.635376 755.000000 57 24 31
-55.142624 238.951431 756.000000 56 24 25
-52.516800 238.951431 756.000000 53 23 15
-49.890945 238.951431 756.000000 55 24 19
-47.265125 238.951431 756.000000 59 30 14
-44.757366 239.583572 758.000000 61 31 20
-42.124569 239.583572 758.000000 63 35 13
-39.387600 238.951431 756.000000 66 37 19
-36.761749 238.951431 756.000000 69 39 31
-34.135925 238.951431 756.000000 76 44 47
-31.510073 238.951431 756.000000 78 47 44
-28.960638 239.583572 758.000000 80 51 35
-26.327866 239.583572 758.000000 82 52 44
-23.632549 238.951431 756.000000 85 56 42
-20.978937 238.635376 755.000000 90 60 50
-18.356562 238.635376 755.000000 94 63 60
-15.734185 238.635376 755.000000 96 62 60
-13.077100 238.003220 753.000000 93 61 50
-10.489457 238.635376 755.000000 93 61 48
-7.867105 238.635376 755.000000 88 58 50
-5.244729 238.635376 755.000000 94 64 62
-2.622351 238.635376 755.000000 89 61 57
0.000000 238.635376 755.000000 89 61 39
2.622377 238.635376 755.000000 93 65 41
5.244753 238.635376 755.000000 99 70 56
7.867130 238.635376 755.000000 102 71 66
10.489457 238.635376 755.000000 96 62 60
13.111833 238.635376 755.000000 95 60 56
15.734209 238.635376 755.000000 96 59 53
18.356585 238.635376 755.000000 93 54 49
20.923389 238.003220 753.000000 96 55 69
23.538769 238.003220 753.000000 89 53 41
26.154200 238.003220 753.000000 81 48 17
28.846043 238.635376 755.000000 75 39 27
31.468418 238.635376 755.000000 74 39 37
34.090797 238.635376 755.000000 76 43 34
36.713123 238.635376 755.000000 69 39 28
39.335499 238.635376 755.000000 65 35 24
41.957874 238.635376 755.000000 64 32 17
44.580254 238.635376 755.000000 70 37 20
47.202629 238.635376 755.000000 75 40 20
49.824959 238.635376 755.000000 71 41 15
52.308399 238.003220 753.000000 65 38 9
54.923828 238.003220 753.000000 69 43 20
57.539261 238.003220 753.000000 77 47 37
60.154690 238.003220 753.000000 82 48 49
62.770069 238.003220 753.000000 90 55 62
65.385498 238.003220 753.000000 91 57 55
68.000931 238.003220 753.000000 89 54 48
70.616356 238.003220 753.000000 85 52 35
73.426300 238.635376 755.000000 90 57 40
76.048622 238.635376 755.000000 89 57 32
78.462601 238.003220 753.000000 84 50 41
81.078026 238.003220 753.000000 85 49 63
83.693459 238.003220 753.000000 92 53 58
86.308891 238.003220 753.000000 93 61 36
88.924271 238.003220 753.000000 95 64 62
91.539696 238.003220 753.000000 109 77 88
94.155128 238.003220 753.000000 109 76 69
97.027580 238.635376 755.000000 99 60 61
99.649963 238.635376 755.000000 115 76 77
102.272293 238.635376 755.000000 114 81 66
104.894661 238.635376 755.000000 111 80 51
107.517036 238.635376 755.000000 105 72 53
110.139412 238.635376 755.000000 114 77 71
112.761795 238.635376 755.000000 114 76 67
115.384125 238.635376 755.000000 113 75 72
117.693901 238.003220 753.000000 110 76 64
120.309326 238.003220 753.000000 109 75 74
122.761513 237.687134 752.000000 103 73 62
125.373466 237.687134 752.000000 111 73 64
127.985374 237.687134 752.000000 112 76 52
130.770996 238.003220 753.000000 116 82 57
133.740707 238.635376 755.000000 114 77 59
136.363083 238.635376 755.000000 120 80 70
138.985458 238.635376 755.000000 104 67 38
141.607788 238.635376 755.000000 90 55 33
144.230164 238.635376 755.000000 83 49 50
146.852554 238.635376 755.000000 53 21 8
149.078964 238.003220 753.000000 42 14 3
151.694382 238.003220 753.000000 61 36 32
154.104843 237.687134 752.000000 99 76 68
156.925201 238.003220 753.000000 109 86 78
253.539459 299.637512 948.000000 54 27 6
257.374023 300.269684 950.000000 51 29 6
267.259094 307.855408 974.000000 41 17 13
271.475739 308.803650 977.000000 22 6 7
275.713226 309.751862 980.000000 14 0 0
288.800751 320.498352 1014.000000 14 2 4
294.052429 322.394806 1020.000000 15 3 7
301.388062 326.503754 1033.000000 19 7 9
306.747437 328.400177 1039.000000 16 4 4
315.135529 333.457367 1055.000000 21 7 4
318.799927 333.457367 1055.000000 19 6 0
331.633881 342.939575 1085.000000 27 11 14
336.329773 343.887787 1088.000000 50 29 36
347.923798 351.789612 1113.000000 35 10 13
357.478943 357.478943 1131.000000 36 12 8
366.200500 362.220032 1146.000000 30 10 1
375.026276 366.961121 1161.000000 32 14 0
380.364716 368.225403 1165.000000 35 16 1
389.690613 373.282593 1181.000000 46 23 9
393.792664 373.282593 1181.000000 51 33 11
416.424927 390.666626 1236.000000 44 24 0
428.546844 397.936310 1259.000000 39 19 0
437.389893 402.045258 1272.000000 40 22 2
445.281311 405.206024 1282.000000 34 18 5
452.891418 408.050659 1291.000000 18 5 0
468.003906 417.532837 1321.000000 19 4 1
477.958496 422.273956 1336.000000 21 3 0
486.572296 425.750763 1347.000000 32 9 1
511.309387 443.134827 1402.000000 32 9 3
518.019897 444.715149 1407.000000 23 1 3
527.366638 448.508026 1419.000000 24 4 5
-420.981873 241.327194 772.000000 33 16 34
-417.216797 240.701996 770.000000 35 19 29
-415.619049 241.327194 772.000000 31 12 18
-412.937653 241.327194 772.000000 32 11 20
-410.256256 241.327194 772.000000 36 12 26
-407.574799 241.327194 772.000000 40 13 32
-403.844452 240.701996 770.000000 37 17 28
-401.169983 240.701996 770.000000 35 22 31
-398.495514 240.701996 770.000000 38 23 42
-396.849182 241.327194 772.000000 34 16 38
-394.167725 241.327194 772.000000 39 18 35
-391.486359 241.327194 772.000000 34 16 30
-320.668549 238.513794 763.000000 39 21 19
-317.184784 237.888596 761.000000 39 14 17
-315.368256 238.513794 763.000000 42 16 19
-312.718079 238.513794 763.000000 42 17 23
-310.067932 238.513794 763.000000 39 12 27
-307.417786 238.513794 763.000000 38 10 32
-245.818192 237.888596 761.000000 13 3 1
-242.216370 236.950790 758.000000 12 2 0
-240.531799 237.888596 761.000000 11 1 0
-237.888596 237.888596 761.000000 14 4 3
-235.245392 237.888596 761.000000 11 1 0
-232.602158 237.888596 761.000000 7 1 1
-229.656799 237.575989 760.000000 6 2 1
-227.315765 237.888596 761.000000 6 2 1
-224.672562 237.888596 761.000000 6 1 0
-222.612869 238.513794 763.000000 6 1 0
-219.962708 238.513794 763.000000 7 1 1
-216.742935 237.888596 761.000000 9 0 3
-213.818420 237.575989 760.000000 10 1 6
-210.622925 236.950790 758.000000 6 0 2
-208.538910 237.575989 760.000000 6 2 1
-205.899200 237.575989 760.000000 6 2 1
-203.259460 237.575989 760.000000 6 2 1
-200.619705 237.575989 760.000000 4 3 1
-197.979996 237.575989 760.000000 4 3 1
-195.597290 237.888596 761.000000 4 3 1
-192.954086 237.888596 761.000000 5 4 2
-190.310867 237.888596 761.000000 8 3 0
-187.421051 237.575989 760.000000 9 3 3
-184.781326 237.575989 760.000000 7 1 1
-182.381256 237.888596 761.000000 7 1 3
-179.738068 237.888596 761.000000 7 1 3
-177.094833 237.888596 761.000000 8 2 2
-174.451630 237.888596 761.000000 9 3 3
-171.808426 237.888596 761.000000 7 2 0
-169.165222 237.888596 761.000000 7 2 0
-166.522034 237.888596 761.000000 8 3 0
-163.663467 237.575989 760.000000 7 1 1
-161.235596 237.888596 761.000000 7 3 2
-158.592392 237.888596 761.000000 7 3 4
-155.949188 237.888596 761.000000 7 3 4
-153.306000 237.888596 761.000000 5 0 4
-150.464798 237.575989 760.000000 7 2 6
-147.825043 237.575989 760.000000 4 2 3
-145.185333 237.575989 760.000000 6 2 3
-142.170471 236.950790 758.000000 9 0 3
-139.537689 236.950790 758.000000 9 0 3
-136.904892 236.950790 758.000000 5 1 0
-134.272095 236.950790 758.000000 5 1 0
-131.639328 236.950790 758.000000 6 0 0
-129.006531 236.950790 758.000000 11 1 2
-126.707207 237.575989 760.000000 10 1 2
-124.067459 237.575989 760.000000 6 0 0
-121.108170 236.950790 758.000000 7 3 2
-118.475395 236.950790 758.000000 7 3 2
-115.842598 236.950790 758.000000 6 2 1
-113.508537 237.575989 760.000000 9 3 3
-110.868790 237.575989 760.000000 10 1 2
-108.229050 237.575989 760.000000 10 0 1
-105.311462 236.950790 758.000000 9 1 0
-102.678665 236.950790 758.000000 11 1 0
-100.045898 236.950790 758.000000 12 0 2
-97.413101 236.950790 758.000000 16 2 2
-94.780304 236.950790 758.000000 16 5 1
-92.147530 236.950790 758.000000 23 10 4
-89.514732 236.950790 758.000000 31 13 11
-86.881966 236.950790 758.000000 42 17 20
-84.249168 236.950790 758.000000 50 24 9
-81.831718 237.575989 760.000000 46 19 10
-78.983597 236.950790 758.000000 47 20 13
-76.350800 236.950790 758.000000 54 25 29
-73.718033 236.950790 758.000000 50 23 16
-71.085236 236.950790 758.000000 53 26 19
-68.452438 236.950790 758.000000 52 26 13
-65.645996 236.325592 756.000000 52 25 16
-63.020145 236.325592 756.000000 54 30 28
-60.394325 236.325592 756.000000 50 29 24
-57.692062 236.013000 755.000000 53 30 36
-55.069683 236.013000 755.000000 50 29 28
-52.516800 236.325592 756.000000 49 29 20
-49.890945 236.325592 756.000000 57 37 30
-47.265125 236.325592 756.000000 55 36 19
