ply
format ascii 1.0
element vertex 1107
property float32 x
property float32 y
property float32 z
property uchar red
property uchar green
property uchar blue
end_header
-646.519775 430.115692 726.968445 38 15 14
-651.884583 431.412537 725.278076 40 16 15
-682.521423 440.105194 726.763000 44 17 17
227.184799 158.871262 547.951355 51 50 76
229.577927 158.846313 548.814148 97 92 119
228.023331 158.308929 545.819336 113 99 125
228.429688 158.027893 544.748657 117 98 121
228.827545 157.746933 543.674927 117 98 115
229.216919 157.466080 542.598145 119 100 113
231.588684 157.441360 543.453247 123 104 118
231.965256 157.160629 542.371826 127 105 117
234.332733 157.135956 543.225342 128 102 112
234.696396 156.855377 542.139282 128 99 105
235.051559 156.574875 541.050171 124 92 95
237.410522 156.550278 541.900635 114 82 82
233.719589 155.758362 536.918518 99 66 68
236.065750 155.733902 537.764343 84 52 54
-359.937531 349.945343 741.046448 56 32 19
-360.895355 349.998657 739.202148 59 36 21
-365.981018 351.272980 738.049377 58 37 19
-383.466492 356.211212 738.939941 59 38 20
-390.641724 358.097504 738.083496 58 38 23
-392.654694 358.457336 736.367493 57 37 23
-406.056244 362.177032 736.481873 56 34 20
-410.153168 363.148499 735.073059 54 29 16
-420.475586 365.953400 734.636536 54 26 14
-428.737213 368.147888 733.848267 53 24 13
-431.818176 368.815033 732.235779 49 21 10
-433.863190 369.176666 730.458069 44 16 8
-443.189606 371.678253 729.779419 36 11 4
-479.589081 382.129913 733.129578 31 8 3
-493.128204 385.857239 732.979065 27 6 2
-499.389923 387.444855 731.721741 24 5 3
-499.400604 387.197632 729.541321 23 5 3
-511.937347 390.621368 729.160950 20 4 2
-546.432129 400.471375 731.858826 20 3 3
-550.656250 401.449921 730.205017 20 4 4
-563.256226 404.877197 729.702881 24 6 7
-570.638000 406.774933 728.448914 27 10 10
-582.221191 409.897766 727.744690 30 12 9
-588.576538 411.490601 726.307068 30 14 8
-629.575989 423.189514 729.439697 34 15 10
-638.074463 425.397247 728.195313 36 16 11
-644.481812 426.992950 726.657593 38 15 14
-645.637268 427.057281 724.432861 40 16 15
-652.056641 428.653625 722.872009 44 18 18
227.209747 157.898270 547.966492 53 52 78
229.602875 157.873322 548.829285 97 90 119
228.048187 157.339401 545.834412 112 96 124
226.476273 156.805679 542.833374 116 96 121
228.852310 156.780914 543.690002 117 98 114
229.241638 156.501785 542.613159 120 102 114
231.613403 156.477066 543.468262 124 105 121
233.985245 156.452347 544.323364 126 106 122
234.357422 156.173401 543.240356 128 103 119
232.717163 155.640381 540.214661 130 102 115
235.076157 155.615784 541.065125 130 99 108
235.422684 155.337112 539.972900 123 91 95
235.760727 155.058533 538.877563 111 78 79
238.111115 155.034027 539.724976 97 64 64
-359.990845 347.867523 741.014038 55 32 21
-360.948669 347.920868 739.169800 58 36 22
-363.970490 348.581177 737.671265 58 36 20
-378.356567 352.580872 738.050598 58 37 20
-392.763428 356.581757 738.389954 58 37 23
-397.881317 357.850891 737.175415 57 37 24
-400.935181 358.513031 735.615173 57 34 21
-401.920197 358.567871 733.718628 55 30 18
-412.236603 361.356750 733.294189 54 26 15
-426.717865 365.361755 733.490234 53 25 14
-429.797333 366.025299 731.880737 49 21 11
-437.036896 367.904694 730.900879 43 16 8
-459.886353 374.344086 732.263855 37 11 4
-476.524506 378.961273 732.626770 32 9 4
-491.103424 382.971710 732.634827 28 7 4
-491.109192 382.725952 730.463806 26 7 5
-495.286316 383.696686 728.900696 24 6 4
-505.732330 386.492767 728.226746 22 4 4
-551.716736 399.633453 732.562866 23 4 4
-561.173157 402.128418 731.634460 23 5 5
-568.549500 404.015442 730.391174 25 7 8
-580.124390 407.120453 729.703552 27 11 10
-584.379089 408.095520 727.991089 30 13 9
-591.785095 409.984161 726.690796 31 14 8
-596.051819 410.959869 724.955200 34 16 9
-642.340271 424.117493 728.705933 36 16 11
-645.597412 424.790955 726.754333 38 15 13
-657.273865 427.901611 725.871155 40 16 15
-658.438110 427.966400 723.629333 46 19 18
216.577621 156.216415 540.487976 2 0 14
218.957901 156.191605 541.346130 5 4 23
223.303757 156.419632 544.130066 54 53 75
223.718613 156.141983 543.062500 94 88 113
224.125031 155.864426 541.991821 111 95 123
226.501038 155.839661 542.848389 115 95 119
226.894531 155.562225 541.773071 118 98 113
229.266357 155.537506 542.628174 123 104 116
231.638123 155.512787 543.483276 128 107 124
232.014603 155.235535 542.401794 129 107 125
234.382095 155.210861 543.255371 129 104 123
232.741745 154.681320 540.229553 132 104 121
233.092545 154.404343 539.138855 133 104 116
235.447220 154.379807 539.987793 129 98 104
233.768494 153.850647 536.948181 122 90 91
236.114655 153.826187 537.794006 109 78 75
-358.939453 345.239471 738.788757 56 35 22
-371.248352 348.612305 738.848389 57 36 21
-384.607758 352.287903 739.045349 58 36 21
-390.750671 353.851532 738.017334 58 37 23
-394.832672 354.811737 736.637634 58 37 23
-402.025299 356.678101 735.748474 58 34 21
-403.011078 356.732971 733.850403 55 31 18
-405.033783 357.089874 732.115784 56 29 17
-415.359344 359.863647 731.674255 55 28 17
-414.276245 359.314697 729.439758 50 24 13
-478.664001 377.314331 732.903381 32 11 6
-494.286774 381.604614 733.062378 29 9 6
-496.379822 381.965454 731.192200 26 8 6
-499.517822 382.628784 729.470154 25 6 5
-520.408081 388.433929 730.286682 24 5 4
-550.732666 396.963196 732.377808 25 4 4
-561.234253 399.746765 731.597351 25 5 4
-573.843201 403.136292 731.079224 25 8 7
-580.186218 404.710999 729.666016 27 11 9
-585.489136 405.983521 728.095459 30 13 9
-587.651855 406.348236 726.091248 32 15 9
-588.766479 406.410278 723.945068 35 16 10
-644.505432 422.218201 728.941650 36 16 10
-645.661743 422.282562 726.715271 39 16 13
-663.651062 427.193207 726.637451 43 19 17
-664.820129 427.258301 724.386475 49 22 21
216.602417 155.248642 540.503052 1 0 12
220.943939 155.474976 543.285461 3 2 18
223.328613 155.450134 544.145203 54 53 69
223.743423 155.174225 543.077515 94 89 106
224.149796 154.898407 542.006836 112 97 119
224.547455 154.622665 540.932983 118 97 118
226.919250 154.597931 541.788086 121 100 115
229.291077 154.573212 542.643188 126 104 117
231.662842 154.548492 543.498291 129 106 123
232.039291 154.272995 542.416809 131 107 126
232.407089 153.997574 541.332214 132 106 125
232.766327 153.722229 540.244507 132 105 122
235.125320 153.697647 541.094971 132 105 117
233.459244 153.171844 538.059937 130 103 110
233.792953 152.896759 536.963013 125 97 98
236.139114 152.872314 537.808899 115 87 84
-360.097473 343.711823 740.949280 48 31 20
-368.274445 345.865112 740.325195 53 34 22
-375.430511 347.718994 739.506836 56 36 23
-384.662018 350.173645 739.012390 58 37 23
-390.805145 351.728577 737.984253 58 38 24
-395.921783 352.983765 736.772644 58 37 22
-402.080170 354.539520 735.715149 58 34 20
-405.138184 355.194916 734.147217 57 33 19
-407.162506 355.550171 732.409485 58 32 20
-494.345245 379.325439 733.026855 28 9 6
-498.523376 380.285767 731.462158 26 8 6
-523.572632 387.259766 732.912109 25 6 4
-537.173340 390.927979 732.645081 24 5 3
-546.613708 393.394196 731.748535 27 4 4
-559.203979 396.763580 731.267029 26 6 4
-575.997864 401.337280 731.331909 26 8 8
-584.437317 403.505188 730.202454 27 12 9
-591.839783 405.372833 728.909546 29 13 8
-594.007385 405.736053 726.896057 31 14 8
-594.077087 405.497375 724.601746 34 15 8
-639.317261 418.204559 728.215881 36 15 9
-659.393188 423.688751 728.441467 39 16 11
-664.768250 424.958282 726.732178 43 18 16
-665.938110 425.023407 724.479675 48 21 20
216.627228 154.280899 540.518127 1 0 11
220.968796 154.505508 543.300537 5 4 18
227.284576 154.979370 548.011963 57 57 70
225.738037 154.455795 545.019958 96 91 106
226.148636 154.181656 543.950806 113 97 117
226.550568 153.907608 542.878479 118 98 119
226.943970 153.633667 541.803101 123 101 117
229.315811 153.608948 542.658203 127 104 119
229.696365 153.335129 541.578186 131 107 124
232.063965 153.310455 542.431763 132 107 126
230.431961 152.787766 539.408997 132 107 127
232.790909 152.763184 540.259460 131 106 123
233.141632 152.489670 539.168701 132 107 120
233.483734 152.216248 538.074829 132 106 115
231.800568 151.694092 535.033569 129 103 106
234.142441 151.669693 535.877869 122 96 94
-360.150787 341.633911 740.916931 44 28 19
-368.328064 343.775116 740.292664 51 34 24
-360.002075 341.143951 736.882996 55 37 26
-383.683319 347.760956 738.808228 57 38 26
-388.792114 349.008759 737.611877 60 40 27
-395.976440 350.853790 736.739441 60 39 25
-404.205750 352.997833 736.015015 60 36 22
-407.265442 353.649872 734.443909 60 36 21
-408.254486 353.704926 732.539551 62 35 23
-517.348022 383.381317 734.175354 27 9 6
-537.195862 388.821533 734.841125 25 6 4
-540.366028 389.479706 733.057434 24 5 3
-547.719177 391.334137 731.859802 26 5 3
-555.081970 393.189087 730.643799 26 6 5
-567.687073 396.540161 730.134338 28 10 10
-582.404602 400.490509 729.877869 28 13 12
-588.757629 402.048401 728.445923 29 13 10
-594.069641 403.307526 726.858215 30 13 9
-603.587158 405.764160 725.813538 33 14 9
-655.139771 420.194824 730.236572 35 15 9
-669.971680 424.151550 729.759705 38 15 11
-669.041992 423.618103 727.229553 42 17 14
-673.373962 424.581787 725.368896 46 20 19
227.309525 154.006393 548.027100 61 61 74
225.762894 153.486282 545.035095 99 94 109
226.173447 153.213898 543.965881 115 100 120
224.596893 152.694092 540.963013 121 100 122
226.968689 152.669373 541.818115 124 102 120
229.340530 152.644638 542.673218 128 105 121
229.721039 152.372574 541.593201 132 107 126
232.088638 152.347900 542.446777 134 108 128
230.456543 151.828690 539.423889 133 107 128
230.811462 151.556870 538.334656 132 106 125
233.166168 151.532333 539.183594 133 108 123
231.495667 151.013519 536.146912 133 108 119
231.824966 150.741959 535.048401 132 106 113
234.166840 150.717560 535.892700 129 102 103
-365.357086 341.038483 741.763489 40 24 17
-374.570099 343.464264 741.305603 48 33 24
-377.602692 344.111328 739.786804 54 38 29
-380.638489 344.758545 738.261841 56 40 28
-386.778900 346.295929 737.239563 61 41 30
-389.823486 346.943634 735.697693 62 41 27
-400.119110 349.668762 735.315430 61 39 24
-408.356689 351.801117 734.575500 61 37 22
-412.457520 352.746735 733.160034 63 36 23
-518.450012 381.362793 734.291992 28 9 5
-532.039124 384.988647 734.048828 26 7 4
-535.205322 385.643127 732.272766 25 6 3
-540.464783 386.892334 730.786560 27 5 4
-555.142822 390.817871 730.606812 27 6 5
-568.795044 394.447235 730.242065 28 10 10
-585.608704 398.969910 730.270569 28 12 12
-594.060730 401.114197 729.117737 29 12 11
-603.572998 403.556610 728.083557 30 13 9
-610.998474 405.404633 726.747253 32 14 9
-622.635925 408.443573 725.941467 34 14 9
-657.420227 418.031555 728.091125 37 15 11
-671.211731 421.668671 727.458313 40 17 14
-670.280396 421.138580 724.931152 44 19 18
227.334457 153.033417 548.042236 62 62 76
223.817856 152.270935 543.122742 100 95 111
224.224091 152.000320 542.051941 119 104 124
224.621613 151.729797 540.978027 124 103 124
226.993408 151.705078 541.833130 126 104 123
227.378235 151.434708 540.754639 128 106 123
229.745712 151.410034 541.608154 132 107 126
230.117737 151.139771 540.525085 134 109 129
230.481125 150.869614 539.438843 134 107 128
230.835999 150.599548 538.349548 132 106 126
231.182373 150.329559 537.257202 133 107 125
231.520126 150.059662 536.161743 132 107 121
231.849380 149.789825 535.063232 132 106 116
234.191254 149.765427 535.907532 131 105 109
-374.623993 341.363861 741.272888 43 30 22
-375.592194 341.417755 739.408630 50 37 28
-384.824768 343.830688 738.913513 54 40 29
-379.596283 342.115417 736.019348 58 40 28
-378.496796 341.579437 733.815918 61 41 27
-396.032135 346.353546 734.616028 61 38 24
-407.375549 349.358765 734.377014 61 36 22
-531.021240 382.590393 736.087769 28 8 5
-533.142517 382.945831 734.163513 26 7 4
-534.221130 383.005890 732.086670 26 6 4
-537.389893 383.657013 730.305847 27 5 5
-548.928589 386.673096 729.690918 26 6 6
-573.042969 393.237762 730.784607 27 9 10
-589.860535 397.734528 730.806519 28 11 11
-596.219604 399.275421 729.363586 28 11 10
-603.635742 401.112457 728.045471 29 11 8
-608.961731 402.358490 726.431396 31 12 8
-621.648682 405.675842 725.765747 33 13 8
-655.382202 414.912323 727.780334 36 15 12
-675.486084 420.304169 727.955261 40 18 15
-690.353577 424.217682 727.411438 43 19 18
221.462341 151.327988 542.279663 62 62 77
221.872696 151.059082 541.210327 102 98 113
222.274567 150.790253 540.138000 122 107 125
224.646332 150.765533 540.993042 125 105 125
227.018127 150.740814 541.848145 127 104 124
227.402908 150.472137 540.769653 128 105 124
227.779053 150.203598 539.687988 132 106 127
230.142380 150.178970 540.540039 134 108 129
228.505859 149.666748 537.515564 133 107 129
228.856400 149.398453 536.424683 132 106 127
231.206879 149.373947 537.272095 133 107 127
229.531876 148.862137 534.233704 132 107 123
231.873779 148.837723 535.078064 133 107 120
234.215652 148.813309 535.922363 133 107 116
-374.677887 339.263428 741.240112 34 22 15
-375.646088 339.317322 739.375916 42 31 22
-390.044434 343.182098 739.736206 48 36 25
-379.650269 340.011505 735.986572 55 38 26
-378.550690 339.479004 733.783203 58 39 24
-366.057587 335.720276 729.754395 60 38 23
-530.003418 380.192169 738.126648 29 7 3
-532.123901 380.545837 736.203979 28 7 4
-533.202576 380.605896 734.127075 27 7 4
-535.325500 380.959686 732.199768 27 6 5
-538.495117 381.607391 730.417358 28 6 6
-548.989136 384.312317 729.654114 27 6 6
-577.291321 392.014374 731.326965 28 9 9
-593.065247 396.191345 731.198914 29 11 10
-597.330322 397.135681 729.467529 29 11 10
-601.600281 398.080292 727.726746 29 11 8
-606.924866 399.319244 726.115601 31 12 8
-609.103760 399.676147 724.080505 33 13 8
-632.314148 405.916595 724.755920 36 15 12
-691.335999 422.162201 729.927612 40 18 16
221.487152 150.360229 542.294739 62 62 77
221.897461 150.093048 541.225403 103 100 115
222.299286 149.825958 540.153015 121 107 125
224.671051 149.801239 541.008057 125 105 124
227.042847 149.776520 541.863159 126 104 124
229.414688 149.751801 542.718262 127 104 125
229.795074 149.484940 541.638123 131 106 128
230.167007 149.218140 540.554993 133 107 129
230.530304 148.951477 539.468689 133 107 129
230.885086 148.684860 538.379395 132 106 128
231.231369 148.418350 537.286987 133 107 128
231.569031 148.151932 536.191467 132 107 125
231.898193 147.885605 535.092834 133 108 123
234.240067 147.861191 535.937134 132 107 119
-530.063416 377.853912 738.090210 30 7 2
-534.269409 378.789734 736.472717 29 7 3
-535.349670 378.849884 734.392761 28 7 3
-536.429871 378.910004 732.312805 28 6 3
-538.555298 379.262238 730.380798 29 6 5
-541.728149 379.906647 728.592224 29 7 6
-567.932434 386.978912 729.985352 30 10 9
-599.412781 395.514374 732.021240 30 12 9
-600.537842 395.577026 729.855042 30 12 9
-604.810303 396.516541 728.109619 30 11 7
-609.087524 397.456329 726.355042 32 12 7
-609.166626 397.226837 724.042358 34 14 8
-633.429504 403.723206 724.852844 36 15 12
-697.716248 421.335785 730.692078 40 18 16
224.695770 148.836960 541.023071 124 104 124
227.067566 148.812241 541.878174 126 103 125
227.452271 148.547073 540.799622 128 104 127
229.819748 148.522400 541.653137 132 105 129
228.195969 148.016983 538.633179 133 106 130
228.554947 147.752060 537.545349 133 106 129
230.909622 147.727524 538.394287 133 106 129
231.255875 147.462753 537.301819 134 108 128
231.593475 147.198074 536.206299 133 108 126
231.922607 146.933487 535.107666 132 108 123
234.264481 146.909073 535.951965 131 107 120
-540.543213 378.417328 739.594971 32 8 3
-535.372314 376.736542 736.588806 30 8 4
-534.366211 376.216187 734.205200 29 7 3
-535.445618 376.276276 732.126770 29 7 4
-537.570313 376.626709 730.196289 30 7 5
-539.696472 376.977234 728.262817 31 8 6
-566.946960 384.298157 729.803223 30 9 8
-602.618164 393.945160 732.413208 30 12 9
-603.745605 394.007935 730.242371 31 11 8
-610.118958 395.523499 728.772766 31 11 6
-611.250366 395.586487 726.594238 33 12 7
-611.330994 395.358795 724.278564 34 14 8
-634.544861 401.526428 724.949707 36 15 12
226.699158 148.111481 542.968750 125 104 126
227.092285 147.847946 541.893188 127 103 128
227.476944 147.584518 540.814575 129 104 129
229.844421 147.559845 541.668152 132 106 129
228.220551 147.057922 538.648132 133 106 130
228.579483 146.794739 537.560242 134 106 130
230.934158 146.770203 538.409180 134 107 130
233.288879 146.745651 539.258118 134 109 130
231.617935 146.244217 536.221130 133 108 127
231.947006 145.981369 535.122498 132 108 124
234.288879 145.956955 535.966797 131 108 122
-534.351501 374.331177 738.633667 32 8 3
-534.389709 374.102875 736.399658 31 8 3
-533.382690 373.585968 734.017700 31 8 4
-534.461304 373.646027 731.940857 30 7 4
-537.630432 374.283264 730.159790 31 6 4
-544.986755 376.075287 728.958191 31 7 6
-563.867798 381.043488 729.331482 31 10 9
-607.919067 392.942993 733.091614 31 11 9
-609.050476 393.005981 730.913086 31 10 8
-613.329590 393.935455 729.155212 31 11 6
-616.563477 394.576324 727.249390 33 12 7
-624.003845 396.373016 725.886047 34 14 9
-639.866882 400.481964 725.588989 36 14 12
-683.115295 412.106354 728.734436 36 14 14
226.723923 147.145462 542.983765 124 102 127
227.117004 146.883682 541.908203 126 101 127
227.501617 146.621979 540.829590 129 104 129
229.869095 146.597305 541.683105 132 105 129
228.245148 146.098846 538.663086 132 105 128
228.604034 145.837418 537.575195 134 106 130
230.958710 145.812866 538.424072 135 108 132
233.313416 145.788330 539.273010 136 110 132
233.655228 145.527069 538.178955 134 109 128
233.988571 145.265900 537.081848 132 109 124
236.334732 145.241455 537.927673 131 108 122
-535.453735 372.272644 738.751221 31 7 2
-535.492676 372.046143 736.515686 31 8 3
-533.442749 371.245972 733.981201 31 8 4
-536.610291 371.879669 732.203247 31 7 4
-539.781067 372.513519 730.419067 33 7 6
-561.784241 378.312042 731.263306 32 8 7
-579.631958 382.964508 731.466614 31 10 10
-601.696045 388.766418 732.193665 30 11 10
-607.016541 389.977325 730.591309 31 11 9
-611.294189 390.901489 728.836426 32 11 8
-615.576660 391.825928 727.072327 34 13 8
-632.474304 396.196808 726.944458 35 14 10
-648.344360 400.281799 726.634644 36 13 12
-672.656494 406.666229 727.354065 36 14 15
227.484116 147.195587 548.133118 68 68 86
227.907059 146.935226 547.068298 110 105 125
226.347107 146.439575 544.071350 123 106 131
226.748688 146.179413 542.998840 124 102 128
227.141724 145.919373 541.923218 126 102 127
227.526291 145.659409 540.844543 130 105 129
229.893768 145.634735 541.698120 134 107 130
230.265533 145.374908 540.614807 134 107 130
230.628647 145.115173 539.528442 135 107 131
232.987610 145.090576 540.378906 135 108 133
235.346603 145.065994 541.229370 134 108 131
233.679718 144.571457 538.193848 133 108 128
234.013031 144.312027 537.096680 131 108 124
236.359177 144.287582 537.942566 131 108 122
-511.545380 363.371765 735.171753 30 7 2
-530.338318 368.275970 735.716675 30 7 2
-530.371643 368.050903 733.491882 31 7 4
-536.670410 369.536224 732.166748 32 7 6
-544.022583 371.307190 730.973999 34 7 7
-568.122070 377.641510 732.104187 34 8 9
-579.693787 380.555145 731.429077 32 10 11
-596.520142 384.895996 731.439331 31 12 11
-606.030884 387.240967 730.411499 32 12 11
-618.702393 390.442749 729.779358 34 12 10
-627.191040 392.503876 728.558960 36 14 11
-650.403625 398.561920 729.236206 36 13 12
-657.874207 400.339447 727.815430 37 13 14
-660.091736 400.689819 725.706177 37 13 16
227.509064 146.222626 548.148315 69 70 88
225.961716 145.730316 545.155823 110 106 125
224.397446 145.238190 542.157227 122 106 129
226.773453 145.213425 543.013855 124 102 126
227.166443 144.955109 541.938232 126 102 126
229.538284 144.930389 542.793335 130 105 128
229.918442 144.672211 541.713074 134 108 130
230.290161 144.414124 540.629761 136 108 131
230.653244 144.156097 539.543396 136 107 133
231.007797 143.898193 538.453918 134 107 132
233.362503 143.873657 539.302795 134 108 132
233.704224 143.615875 538.208740 133 108 129
234.037476 143.358185 537.111572 131 108 124
236.383636 143.333725 537.957397 131 108 121
-491.788239 356.133148 736.560425 32 9 5
-498.044891 357.607452 735.316772 30 9 4
-513.688904 361.631195 735.443848 29 8 3
-532.484131 366.505981 735.985229 28 7 2
-533.562805 366.566010 733.908264 30 6 4
-540.908752 368.326172 732.727783 31 6 6
-549.309753 370.370270 731.676575 34 7 7
-568.183411 375.249451 732.066895 34 8 10
-582.896484 378.996155 731.825806 32 11 12
-597.630371 382.744019 731.544617 31 12 12
-607.142334 385.075165 730.514954 32 12 12
-622.963196 389.108765 730.301453 35 13 12
-629.354980 390.590607 728.797485 37 14 12
-651.519165 396.328583 729.334045 38 14 13
-660.042603 398.379486 728.047058 38 13 15
-663.314331 399.011993 726.068726 39 14 18
-668.696045 400.212402 724.349060 39 15 20
-677.246582 402.264832 723.009827 34 12 16
-685.808350 404.317902 721.648987 28 9 10
227.534012 145.249634 548.163452 70 70 89
225.986572 144.760803 545.170898 108 104 124
224.422211 144.272141 542.172302 121 105 128
224.819366 144.015533 541.098145 124 101 125
227.191162 143.990814 541.953247 125 101 124
229.563004 143.966080 542.808350 130 105 126
231.934769 143.941360 543.663452 135 108 130
230.314789 143.453278 540.644775 137 109 132
230.677826 143.197037 539.558289 137 108 133
231.032333 142.940857 538.468811 135 107 132
233.387054 142.916306 539.317749 136 109 132
233.728714 142.660278 538.223572 134 109 129
234.061935 142.404312 537.126404 132 109 124
236.408096 142.379852 537.972229 130 107 120
-490.806091 353.574280 736.367859 31 11 7
-494.979340 354.476990 734.814575 30 10 5
-510.621582 358.476318 734.945862 28 9 3
-525.243225 362.195343 734.881592 27 8 2
-529.447632 363.099762 733.268188 28 6 4
-536.790649 364.849365 732.093689 30 6 5
-546.234131 367.162781 731.196289 34 6 7
-570.337219 373.420837 732.322205 34 8 9
-589.240479 378.272095 732.656616 32 12 12
-600.836365 381.152283 731.936218 31 12 12
-607.205200 382.624146 730.476746 33 12 13
-627.224304 387.761017 730.823364 36 14 14
-643.071350 391.771698 730.560303 39 15 14
-648.430786 392.963928 728.883667 39 14 14
-659.055725 395.566589 727.872131 40 13 15
-666.537170 397.323853 726.431091 40 15 18
-667.707825 397.389008 724.177002 38 14 18
-678.366333 399.993561 723.100830 33 11 14
-690.094177 402.881073 722.126282 27 8 9
227.558945 144.276688 548.178589 70 71 90
226.011429 143.791336 545.186035 107 103 123
224.446976 143.306152 542.187317 119 104 127
224.844086 143.051254 541.113159 121 99 123
227.215897 143.026535 541.968262 123 100 122
229.587723 143.001816 542.823364 128 103 125
231.959488 142.977097 543.678467 134 107 130
230.339417 142.492493 540.659729 137 109 132
230.702408 142.237961 539.573242 137 108 134
231.056870 141.983536 538.483704 136 108 132
231.402847 141.729172 537.391113 136 109 131
231.740189 141.474930 536.295410 134 110 128
234.086380 141.450485 537.141235 133 109 122
236.432541 141.426025 537.987122 130 107 119
-481.496704 349.003204 737.083618 30 12 10
-492.945770 351.857819 736.646545 29 10 7
-500.245087 353.594543 735.556519 28 10 5
-509.638458 355.891266 734.755981 26 9 3
-523.216858 359.307892 734.540527 26 8 3
-529.507507 360.766754 733.231873 28 7 4
-534.761536 361.946136 731.758484 30 7 6
-544.203735 364.245575 730.863953 33 7 8
-566.213684 369.905396 731.699829 34 9 10
-574.644043 371.926788 730.592896 31 11 11
-584.133484 374.228882 729.607422 31 12 12
-597.830261 377.652100 729.163879 35 13 15
-617.842957 382.757294 729.523865 38 15 16
-647.336670 390.385803 731.075439 41 15 16
-663.209961 394.373657 730.762634 40 14 14
-666.483521 394.999359 728.781006 40 13 14
-669.760254 395.625183 726.793335 41 14 16
-670.933350 395.690491 724.534607 38 14 16
-686.865845 399.681641 724.107849 32 11 12
-684.884949 398.906158 721.439697 26 7 7
227.583893 143.303696 548.193726 71 72 91
224.065948 142.593353 543.273438 106 102 122
224.471741 142.340118 542.202393 117 102 125
224.868805 142.086960 541.128174 119 98 122
227.240616 142.062241 541.983276 122 99 121
229.612442 142.037521 542.838379 128 104 125
231.984207 142.012802 543.693481 134 107 129
232.360062 141.759888 542.611633 137 109 132
230.726990 141.278900 539.588196 138 109 134
231.081421 141.026184 538.498596 137 109 133
231.427353 140.773575 537.406006 136 110 130
233.777710 140.749069 538.253357 135 110 127
234.110840 140.496613 537.156128 134 110 124
236.457001 140.472153 538.001953 131 108 120
-471.160278 344.182831 737.615112 29 12 12
-478.435089 345.907745 736.572754 27 10 9
-494.044952 349.856598 736.768005 26 9 7
-499.262360 351.026978 735.365356 26 10 6
-510.739868 353.865814 734.874023 25 10 4
-525.362671 357.539703 734.809082 26 9 4
-527.479614 357.877533 732.893799 28 8 6
-535.866272 359.884308 731.871338 30 8 7
-547.400574 362.726318 731.270569 33 8 9
-550.580627 363.343323 729.469238 34 10 11
-576.799805 370.082642 730.844849 32 11 11
-586.291199 372.370972 729.856079 33 13 13
-610.477051 378.557098 730.825195 37 14 16
-639.945618 386.137299 732.426758 41 16 18
-644.250305 387.036926 730.620667 43 16 16
-663.275085 391.835815 730.723083 42 14 13
-668.652527 393.015137 729.012268 41 13 11
-669.825562 393.080444 726.753662 40 14 12
-670.998657 393.145752 724.494934 38 14 13
-694.311829 399.063324 724.983521 32 11 10
-694.446594 398.850830 722.563232 26 7 5
224.090759 141.625595 543.288452 106 101 122
224.496506 141.374100 542.217407 116 101 125
224.893524 141.122681 541.143188 120 99 124
227.265335 141.097961 541.998291 124 101 124
229.637161 141.073242 542.853394 130 106 128
232.008926 141.048523 543.708435 136 109 132
234.380768 141.023804 544.563538 138 111 133
230.751587 140.319824 539.603088 139 111 134
231.105957 140.068863 538.513489 138 111 132
231.451843 139.817993 537.420837 137 111 129
231.789108 139.567200 536.325073 136 112 127
234.135300 139.542740 537.170959 135 111 124
236.481445 139.518295 538.016785 133 108 122
-473.296204 342.488739 737.900269 28 9 9
-474.333252 342.546478 735.903442 26 9 8
-483.696136 344.813690 735.162598 25 9 7
-488.905701 345.976715 733.775269 26 10 6
-505.587341 350.179138 734.068604 26 10 5
-511.861633 351.619659 732.792114 26 8 5
-531.715088 356.653381 733.460754 28 8 6
-538.015808 358.095398 732.133423 30 7 6
-549.552246 360.920135 731.529297 34 8 8
-557.965576 362.916260 730.455811 35 10 10
-581.050049 368.784607 731.385986 33 11 11
-590.544983 371.059174 730.390869 35 14 12
-606.345093 374.994293 730.220642 38 16 16
-638.960266 383.357483 732.247742 42 18 17
-644.314697 384.528503 730.581543 44 18 16
-667.544739 390.404968 731.231384 42 16 12
-673.977539 391.854370 729.649719 40 13 10
-678.312744 392.750427 727.785034 40 14 10
-685.813477 394.477478 726.307922 38 13 10
-708.084473 400.082336 726.643555 33 11 8
222.145111 140.432831 541.375793 106 102 123
224.521271 140.408066 542.232422 116 101 126
224.918243 140.158401 541.158203 121 100 125
227.290054 140.133682 542.013306 126 104 127
229.661880 140.108963 542.868408 132 108 131
232.033646 140.084244 543.723450 137 110 134
234.405487 140.059525 544.578552 139 111 134
230.776169 139.360733 539.618042 139 111 134
231.130508 139.111526 538.528442 139 111 132
231.476349 138.862381 537.435730 138 110 130
231.813553 138.613327 536.339966 137 111 129
234.159744 138.588867 537.185791 135 110 126
236.505905 138.564423 538.031677 132 108 124
-456.753815 336.283783 739.574951 32 11 6
-464.009888 337.986755 738.569275 30 8 4
-466.079681 338.318512 736.744934 27 6 4
-470.231049 339.199158 735.234436 25 5 2
-476.468750 340.628937 734.028625 26 8 5
-484.797638 342.608215 733.118225 26 8 6
-511.900543 349.529816 734.956055 27 9 6
-528.611633 353.707794 735.193542 28 8 6
-534.906982 355.140808 733.876770 30 7 5
-541.210327 356.574280 732.544617 32 5 4
-547.521667 358.008179 731.197083 35 5 5
-553.841003 359.442505 729.834167 35 7 5
-568.545776 363.075775 729.612854 35 12 8
-592.703186 369.183868 730.639221 35 14 10
-618.993347 375.843689 731.881042 39 17 13
-643.222778 381.955811 732.768738 43 19 14
-649.630920 383.395111 731.234802 44 20 13
-669.712402 388.410248 731.465576 43 19 12
-676.147034 389.851013 729.880676 42 18 12
-684.695068 391.842468 728.548218 42 18 12
-693.254456 393.834534 727.194092 39 16 12
-706.042480 396.928070 726.341431 33 11 7
224.546036 139.442047 542.247498 116 102 126
224.942978 139.194107 541.173218 122 100 126
227.314774 139.169388 542.028320 128 105 130
229.686600 139.144669 542.883423 134 109 134
232.058365 139.119949 543.738464 137 111 136
230.437943 138.649261 540.719543 141 114 138
230.800751 138.401672 539.632996 141 113 137
231.155045 138.154190 538.543335 139 110 134
231.500839 137.906784 537.450623 137 108 130
231.838013 137.659485 536.354797 136 109 130
234.184204 137.635025 537.200684 135 108 130
236.530350 137.610580 538.046509 133 107 128
-456.810913 334.058380 739.540283 36 13 5
-459.913574 334.660645 737.888245 34 10 4
-466.137085 336.080963 736.710083 30 8 3
-470.288605 336.956421 735.199463 26 6 2
-476.526520 338.377533 733.993530 26 6 3
-484.855743 340.344604 733.082947 25 7 4
-513.002197 347.495636 735.073914 26 7 5
-528.671509 351.374756 735.157166 28 7 6
-534.967102 352.799103 733.840271 30 6 5
-540.225830 353.950928 732.358765 32 5 3
-546.536560 355.376099 731.012573 35 5 3
-550.762451 356.255707 729.358826 36 7 4
-564.418152 359.593170 728.997192 35 10 5
-602.197754 369.213409 731.888977 36 14 8
-635.837952 377.744141 734.106934 41 18 12
-645.386414 379.993896 733.009644 44 21 14
-651.796326 381.424591 731.472534 44 20 13
-670.829041 386.135254 731.562744 43 19 12
-676.212646 387.294098 729.840820 44 19 13
-685.813843 389.546753 728.641968 44 20 15
-694.374329 391.526703 727.286133 40 16 12
-707.163635 394.601196 726.431702 33 12 8
222.194641 138.500793 541.405884 100 98 119
224.570801 138.476028 542.262512 116 101 125
224.967697 138.229828 541.188232 123 102 126
227.339493 138.205109 542.043335 130 108 132
229.711334 138.180389 542.898438 135 112 136
232.083084 138.155670 543.753479 138 112 137
230.462570 137.688446 540.734497 140 114 138
230.825348 137.442596 539.647888 140 112 136
231.179581 137.196838 538.558228 138 110 133
229.516312 136.730072 535.523804 138 109 132
231.862457 136.705627 536.369629 137 109 132
234.208649 136.681168 537.215515 135 108 132
236.554810 136.656723 538.061340 134 107 131
-456.868042 331.832947 739.505554 40 16 7
-458.932281 332.160919 737.691956 38 14 6
-465.155212 333.572510 736.515198 33 10 4
-468.266022 334.171722 734.847595 28 6 2
-479.706909 336.939026 734.429199 24 5 2
-481.788818 337.267944 732.581543 23 5 2
-490.127106 339.223358 731.653931 24 5 3
-528.731384 349.041718 735.120789 27 6 4
-531.894958 349.643921 733.351563 30 7 6
-537.151489 350.788666 731.874573 32 7 4
-546.597046 353.018768 730.975891 34 6 4
-551.869568 354.164459 729.468140 35 7 4
-563.432068 356.938446 728.815491 34 10 5
-616.933411 370.568634 733.853394 36 15 8
-639.048645 376.060455 734.492432 41 19 12
-648.599854 378.296478 733.390320 44 21 14
-656.062927 379.990112 731.986877 44 20 14
-671.945740 383.856812 731.659912 44 19 13
-673.122009 383.922302 729.395020 44 19 15
-683.774109 386.432587 728.334351 45 20 17
-695.494263 389.215393 727.378052 41 16 13
222.219406 137.534775 541.420898 99 97 117
224.595566 137.510010 542.277588 116 101 124
224.992416 137.265549 541.203247 124 103 126
227.364212 137.240814 542.058350 133 111 134
229.736053 137.216095 542.913452 139 115 137
232.107803 137.191376 543.768494 140 115 138
230.487213 136.727631 540.749451 141 115 138
230.849930 136.483521 539.662842 140 113 135
233.208893 136.458939 540.513306 139 112 133
229.540756 135.776215 535.538635 138 110 132
231.886917 135.751755 536.384521 137 109 131
234.233109 135.727310 537.230347 136 108 131
236.579254 135.702850 538.076233 134 108 131
-459.000549 330.145691 739.796997 43 19 10
-462.104980 330.741119 738.141785 41 17 9
-468.330536 332.144135 736.960266 36 14 7
-472.483917 333.009247 735.446411 31 10 4
-477.682983 334.143890 734.080261 23 4 1
-483.930176 335.548126 732.857056 22 3 1
-484.972809 335.606171 730.849548 23 4 2
-516.271484 343.476196 733.257385 26 6 4
-538.219604 348.923981 734.219421 30 8 6
-543.481079 350.062042 732.733093 32 8 6
-551.886108 352.009003 731.677307 34 7 5
-557.162781 353.147949 730.161743 34 8 5
-566.635132 355.365631 729.212036 34 11 7
-592.890137 361.898376 730.525696 36 15 9
-641.210693 374.096710 734.736389 42 18 12
-649.714172 376.049164 733.491089 44 20 15
-657.178284 377.732483 732.085876 46 20 15
-673.062500 381.574890 731.756958 45 19 16
-673.187500 381.370544 729.355225 46 19 17
-684.892883 384.135132 728.428101 46 19 17
-700.829163 387.980469 727.998962 42 15 14
217.492004 136.618286 539.722656 14 16 32
219.868134 136.593521 540.579346 72 75 94
222.244171 136.568756 541.435974 96 94 115
222.645370 136.325989 540.363159 114 100 122
225.017136 136.301270 541.218262 123 103 124
227.388931 136.276550 542.073364 133 111 132
229.760773 136.251831 542.928467 139 116 137
230.140533 136.009277 541.847961 141 117 138
230.511841 135.766830 540.764404 142 117 138
230.874512 135.524460 539.677795 141 114 135
231.228668 135.282196 538.588013 140 113 133
229.565216 134.822357 535.553528 139 111 132
229.897995 134.580292 534.456055 137 109 130
232.239914 134.555893 535.300415 136 108 130
234.581787 134.531479 536.144714 134 108 129
-460.095490 328.184174 739.925293 45 21 12
-463.200806 328.776154 738.268494 44 20 12
-467.348663 329.635742 736.765381 40 17 9
-468.380920 329.693207 734.777832 35 13 7
-476.699829 331.623199 733.888306 25 6 2
-478.779419 331.948517 732.045288 22 4 1
-479.818054 332.006317 730.045471 22 4 2
-491.290222 334.740570 729.567932 25 6 3
-545.588928 348.450836 735.237610 28 7 6
-549.811218 349.314575 733.591309 30 7 6
-557.175598 350.981873 732.378479 32 8 6
-561.409912 351.846283 730.708984 33 9 6
-570.885803 354.050262 729.752869 35 12 9
-600.289551 361.345215 731.488770 37 16 11
-642.323975 371.858032 734.838745 42 18 14
-651.878296 374.066406 733.731628 44 20 16
-657.243164 375.203278 732.046509 47 20 18
-672.076660 378.753357 731.580383 48 21 19
-671.148621 378.282532 729.044922 49 21 20
-683.905823 381.297882 728.254333 49 21 21
-700.895691 385.387054 727.958557 44 16 16
217.516769 135.652267 539.737732 10 13 28
219.892899 135.627502 540.594360 67 69 89
222.268936 135.602737 541.450989 93 90 111
222.670090 135.361710 540.378174 114 100 122
225.041855 135.336990 541.233276 122 102 124
227.413651 135.312271 542.088379 132 110 132
229.785492 135.287537 542.943481 138 116 137
230.165207 135.046738 541.862976 142 117 139
230.536469 134.806015 540.779358 143 118 139
230.899109 134.565399 539.692688 142 115 135
231.253204 134.324860 538.602966 140 113 133
229.589661 133.868500 535.568359 139 111 130
231.935822 133.844040 536.414185 137 110 129
232.264313 133.603775 535.315247 136 109 128
234.606201 133.579361 536.159546 135 108 127
-462.228333 326.484741 740.216492 45 21 12
-467.412537 327.604614 738.879395 44 21 12
-470.524323 328.193481 737.210205 42 19 11
-468.438385 327.453918 734.742920 38 17 9
-475.716583 329.105988 733.696411 29 9 3
-477.795441 329.429535 731.854858 25 6 3
-478.833252 329.487305 729.856628 22 4 2
-510.129730 337.256317 732.272156 23 5 3
-548.782043 346.889618 735.652832 25 5 3
-556.141907 348.546265 734.449158 26 6 4
-563.511353 350.203400 733.226929 30 7 6
-569.843811 351.595062 731.840210 32 9 8
-578.279053 353.519379 730.727051 35 13 11
-598.255737 358.372223 731.164795 38 16 12
-638.192322 368.284851 734.234009 42 18 15
-649.843445 371.011627 733.412598 44 20 16
-656.257446 372.407806 731.868713 47 20 19
-667.936523 375.136169 730.993408 50 22 21
-670.161804 375.467834 728.869934 51 22 23
-679.759705 377.664734 727.679443 52 23 24
-692.531799 380.661774 726.860779 46 17 17
222.293701 134.636703 541.466003 91 88 109
222.694809 134.397415 540.393188 116 102 123
225.066574 134.372696 541.248291 122 103 125
227.438370 134.347977 542.103394 132 111 133
229.810211 134.323257 542.958496 138 116 138
228.197784 133.869827 539.942322 142 118 140
228.564774 133.630905 538.857178 144 119 140
230.923691 133.606308 539.707642 141 115 136
229.272858 133.153305 536.677612 140 113 133
229.614120 132.914642 535.583191 139 112 130
229.946823 132.676056 534.485718 138 111 129
232.288727 132.651657 535.330017 137 110 128
234.630600 132.627243 536.174316 136 109 126
-462.285675 324.250671 740.181641 44 20 10
-466.431396 325.099701 738.683044 45 22 11
-469.542480 325.685028 737.015320 44 21 11
-469.536102 325.478607 734.866333 41 19 10
-475.774323 326.856293 733.661377 35 14 7
-476.811371 326.914032 731.664551 30 11 5
-496.615997 331.726013 732.434692 25 7 3
-526.883911 339.181274 734.671021 23 6 3
-540.488770 342.411652 734.410950 23 4 3
-543.662292 343.000488 732.623047 24 4 3
-565.664246 348.346954 733.484802 27 6 6
-569.905212 349.201263 731.802856 31 9 9
-587.767822 353.492981 731.989807 34 13 13
-604.607788 357.521698 731.984375 38 16 15
-635.109375 364.989990 733.770874 42 18 16
-648.858215 368.228363 733.233459 43 19 16
-656.322327 369.880371 731.829346 46 20 18
-664.847473 371.797516 730.543457 49 21 20
-666.018188 371.862671 728.289368 51 21 22
-670.347961 372.721954 726.436401 51 21 22
-672.574890 373.052002 724.309814 46 17 17
219.942413 133.695450 540.624451 65 65 86
222.318466 133.670685 541.481079 94 90 112
222.719528 133.433136 540.408203 118 103 125
225.091293 133.408417 541.263306 123 104 126
227.463089 133.383698 542.118408 133 112 134
227.847076 133.146317 541.039368 138 116 138
228.222412 132.909042 539.957275 141 117 140
228.589355 132.671829 538.872131 143 118 140
228.947617 132.434723 537.783813 141 115 137
229.297363 132.197723 536.692505 140 113 134
227.629395 131.748352 533.656250 141 114 133
231.984726 131.936325 536.443909 140 113 132
232.313141 131.699539 535.344849 140 113 132
234.655014 131.675125 536.189148 138 111 129
-459.229309 321.230225 739.658081 44 21 9
-466.488861 322.860382 738.648193 46 23 11
-469.600037 323.442291 736.980408 46 22 12
-471.674164 323.762085 735.148071 44 22 12
-477.914215 325.131165 733.939819 40 20 10
-482.078552 325.976044 732.405579 34 15 6
-507.101440 332.068939 733.935974 28 10 4
-519.639282 335.014709 733.569763 25 7 3
-529.061829 337.173981 732.717651 23 5 2
-543.722656 340.646606 732.586365 22 4 2
-568.863220 346.746063 733.890198 26 6 5
-573.106689 347.595306 732.203552 30 9 10
-590.972412 351.859375 732.385376 33 13 13
-604.670593 355.074097 731.946228 36 16 16
-630.977051 361.442810 733.166565 40 18 16
-647.872864 365.448547 733.054443 42 18 16
-656.387146 367.352905 731.789978 44 19 16
-664.912659 369.257904 730.503906 47 20 18
-665.031067 369.060150 728.114563 49 20 19
-671.466370 370.440125 726.530396 49 19 18
-678.963562 372.083557 725.062866 46 17 16
219.967178 132.729431 540.639465 68 69 88
222.343231 132.704666 541.496094 99 95 116
224.719376 132.679901 542.352783 119 105 126
225.116013 132.444138 541.278320 124 105 126
227.487808 132.419418 542.133423 134 113 135
229.859650 132.394699 542.988525 139 117 140
228.247055 131.948242 539.972229 140 116 140
228.613937 131.712769 538.887024 142 117 141
226.971420 131.266617 535.859985 142 115 139
227.316833 131.031372 534.767029 141 115 137
229.663025 131.006912 535.612915 142 114 135
232.009186 130.982468 536.458740 142 115 134
232.337540 130.747391 535.359680 141 115 134
234.679413 130.722992 536.203979 139 112 131
-461.362366 319.522095 739.949097 44 20 9
-464.468842 320.100189 738.290527 45 23 10
-468.618042 320.939026 736.785645 45 22 11
-470.691437 321.257050 734.954834 43 21 10
-472.766357 321.575134 733.121033 41 21 10
-494.639709 326.844940 734.232849 38 19 8
-502.989502 328.727966 733.285522 34 16 7
-514.481018 331.393738 732.773010 29 12 4
-525.988647 334.060425 732.229614 25 7 2
-535.421997 336.206421 731.357422 22 4 2
-578.338074 346.699738 735.180359 24 5 4
-587.822571 348.848572 734.209534 28 8 9
-601.510071 352.041809 733.791687 32 12 14
-608.926758 353.670349 732.479614 34 14 14
-619.500366 356.082397 731.573120 38 17 14
-643.737671 361.889008 732.456055 42 19 15
-656.452026 364.825439 731.750549 45 20 16
-667.080872 367.240570 730.737732 48 22 18
-671.410156 368.089386 728.886047 50 22 19
-681.009888 370.244659 727.693420 50 21 18
-685.352844 371.094238 725.815491 47 18 15
227.858261 132.601028 548.360352 75 76 94
224.338852 131.947998 543.439148 102 98 118
224.744141 131.713867 542.367798 121 107 127
227.120148 131.689102 543.224426 130 111 131
229.496201 131.664337 544.081055 137 116 138
225.908524 131.012024 539.135193 140 118 141
224.287277 130.569138 536.115784 142 117 142
226.642029 130.544586 536.964722 140 116 140
226.995911 130.311005 535.874878 140 114 138
227.341293 130.077515 534.781921 140 114 136
227.678207 129.844086 533.685913 141 114 136
230.020050 129.819672 534.530212 141 114 134
232.361954 129.795258 535.374512 141 115 134
234.703827 129.770859 536.218811 140 113 131
-459.343689 316.772430 739.588623 43 19 8
-462.448639 317.347015 737.933044 45 22 10
-467.635956 318.439270 736.590942 44 22 11
-472.829742 319.531860 735.236389 42 21 10
-475.947510 320.107178 733.556152 41 22 10
-500.950073 326.118958 735.128357 39 21 9
-505.133850 326.954498 733.557068 37 19 8
-514.540283 329.085052 732.737061 33 16 6
-526.048340 331.734375 732.193359 28 11 4
-529.210938 332.312164 730.426880 24 6 2
-583.629822 345.585846 735.880127 24 6 4
-596.259033 348.498444 735.339172 27 8 8
-601.572754 349.597717 733.753601 32 13 14
-605.844604 350.438110 732.012817 34 15 15
-608.022766 350.760254 729.980225 38 18 15
-618.602478 353.157013 729.062622 41 20 16
-651.263000 361.001221 731.020020 45 21 16
-670.300903 365.475769 731.108154 48 23 17
-676.737488 366.838409 729.522034 50 23 19
-685.288391 368.720490 728.187866 51 23 18
227.883209 131.628052 548.375549 73 74 92
222.392761 130.772629 541.526184 103 99 118
224.768906 130.747864 542.382874 122 108 128
225.165451 130.515564 541.308350 131 111 132
225.553513 130.283356 540.230774 137 115 137
225.933151 130.051239 539.150146 139 116 140
226.304077 129.819214 538.066406 140 115 140
226.666565 129.587265 536.979614 139 114 140
227.020416 129.355408 535.889709 140 113 138
227.365738 129.123657 534.796753 140 113 137
227.702621 128.891983 533.700745 142 115 137
230.044449 128.867569 534.545044 142 115 135
232.386368 128.843155 535.389343 142 115 134
234.728241 128.818756 536.233643 140 113 131
128.420334 178.074066 745.227173 127 93 79
-459.400879 314.543518 739.553833 41 18 8
-463.544739 315.371643 738.059570 43 20 10
-468.733032 316.456970 736.715820 43 20 11
-472.887360 317.285614 735.201355 41 20 10
-481.211334 319.142883 734.304565 41 21 11
-504.134918 324.600708 735.558105 40 21 10
-507.278351 325.173981 733.828552 39 21 9
-517.730408 327.547974 733.157288 36 19 8
-526.108032 329.408264 732.157104 32 15 6
-528.225464 329.725250 730.241577 27 10 2
-592.060059 345.226624 737.021973 25 8 3
-598.415222 346.576050 735.593018 26 8 6
-601.635498 347.153564 733.715515 30 13 13
-604.859009 347.731262 731.831848 32 14 14
-607.036438 348.051575 729.800781 36 17 14
-612.365601 349.144775 728.185730 40 20 15
-616.650330 349.980713 726.420227 44 21 16
-648.282104 357.516327 728.198608 46 22 16
-684.170105 366.085419 730.428040 49 23 18
-694.833374 368.471222 729.350037 50 23 20
216.504715 129.188950 535.757080 105 102 121
220.843216 129.370148 538.538696 123 108 129
223.210739 129.345474 539.392212 132 110 132
223.594437 129.115051 538.313110 136 113 138
225.957779 129.090424 539.165100 138 114 140
226.328674 128.860123 538.081360 139 114 141
226.691101 128.629929 536.994568 139 114 140
227.044907 128.399811 535.904602 140 113 139
227.390198 128.169785 534.811584 140 113 137
229.736389 128.145325 535.657471 141 114 137
230.068863 127.915443 534.559875 142 115 135
232.410767 127.891029 535.404175 141 115 134
234.752640 127.866623 536.248474 139 113 130
128.386353 176.749603 745.206543 126 92 77
-458.419983 312.059540 739.356323 39 17 8
-462.563202 312.882324 737.863464 41 18 10
-464.631866 313.194885 736.041870 41 19 11
-468.783142 314.018158 734.533569 40 19 11
-485.434357 317.905945 734.895996 41 21 12
-508.362091 323.327545 736.142822 40 21 10
-512.551697 324.152924 734.560608 40 21 9
-516.746094 324.978607 732.969177 38 20 8
-526.167725 327.082245 732.120850 35 17 7
-528.285217 327.397491 730.205322 30 13 4
-593.168518 343.050293 737.131531 28 10 3
-601.618469 344.902435 735.992615 26 9 5
-604.841187 345.476624 734.110474 28 12 10
-607.018738 345.795197 732.079224 30 14 12
-608.148560 345.858093 729.903809 35 17 14
-614.528748 347.200226 728.426880 40 21 16
-620.916931 348.542816 726.934570 44 22 17
-650.449890 355.516418 728.432739 46 23 17
-695.813171 366.332153 731.874023 48 23 18
-702.272583 367.678680 730.244568 49 23 19
216.529343 128.228149 535.772034 106 103 122
222.843124 128.611725 540.483276 122 106 127
223.235413 128.382935 539.407227 130 108 131
225.602859 128.358261 540.260742 136 111 136
225.982407 128.129623 539.180115 138 114 140
226.353256 127.901062 538.096313 140 115 142
228.712296 127.876480 538.946777 141 115 142
227.069412 127.444221 535.919495 141 114 141
227.414642 127.215950 534.826477 140 113 138
227.751434 126.987747 533.730408 140 113 137
230.093262 126.963341 534.574646 141 115 136
232.435181 126.938927 535.419006 141 115 134
234.777054 126.914520 536.263306 138 113 130
-462.629608 310.846100 739.972778 38 16 8
-463.659393 310.903442 737.989929 39 17 9
-467.808319 311.721375 736.486267 39 18 11
-471.962128 312.539551 734.973206 39 18 11
-493.822998 317.669586 736.113770 42 21 13
-507.379028 320.772064 735.951843 40 21 11
-511.567963 321.592224 734.371094 40 20 10
-513.674316 321.905121 732.477112 39 21 9
-518.915771 322.979523 731.031372 38 20 8
-519.982422 323.038879 728.977600 34 16 6
-600.553772 342.393799 738.125305 31 12 4
-603.775024 342.964417 736.246216 28 10 5
-605.951782 343.281219 734.216553 27 11 8
-607.081665 343.344116 732.041077 29 13 12
-608.211487 343.406982 729.865601 34 17 14
-614.591919 344.740448 728.388550 39 21 17
-617.827576 345.311890 726.481689 43 23 19
-627.376709 347.408661 725.388245 46 24 19
-653.778931 353.574127 726.431152 47 23 19
-706.552490 366.098938 730.738159 48 22 19
222.867844 127.647423 540.498291 122 106 127
223.260086 127.420387 539.422241 130 106 129
225.627533 127.395706 540.275757 134 109 134
226.007050 127.168793 539.195068 137 112 138
226.377838 126.941986 538.111206 141 115 141
228.736877 126.917397 538.961731 142 116 141
227.093903 126.488617 535.934387 141 114 140
227.439102 126.262070 534.841309 140 113 138
227.775833 126.035606 533.745239 141 114 139
230.117676 126.011192 534.589478 141 115 137
232.459595 125.986786 535.433838 140 114 135
234.801468 125.962379 536.278137 138 113 131
-462.686920 308.612091 739.937927 38 15 7
-467.872559 309.676392 738.600037 37 16 8
-474.104340 310.992889 737.409485 38 17 10
-480.344177 312.309845 736.203369 38 18 11
-498.046906 316.397980 736.704651 40 20 12
-508.480194 318.723999 736.071045 40 20 11
-507.455292 318.279083 733.721130 40 21 10
-509.558441 318.590088 731.833252 40 22 9
-509.574158 318.397034 729.641296 39 21 8
-510.633545 318.455994 727.601440 36 18 6
-602.708862 340.452240 738.381897 34 15 5
-606.978760 341.271698 736.645447 31 13 5
-608.110168 341.334686 734.466980 27 12 8
-609.241638 341.397675 732.288391 28 13 10
-610.373047 341.460663 730.109863 32 16 13
-612.554688 341.775970 728.070923 36 18 15
-616.839783 342.596283 726.305176 40 21 17
-637.957886 347.456268 726.715454 43 23 19
222.491821 126.908546 541.586365 107 105 123
224.867966 126.883774 542.442993 125 108 129
225.264328 126.658432 541.368408 131 108 129
227.636139 126.633713 542.223511 134 109 132
226.031677 126.208008 539.210022 136 112 134
226.402435 125.982933 538.126160 140 113 137
228.761459 125.958344 538.976624 140 114 138
227.118408 125.533035 535.949219 140 113 138
227.463547 125.308220 534.856140 140 113 138
227.800247 125.083488 533.760010 142 115 140
230.142090 125.059082 534.604309 141 114 138
232.483994 125.034676 535.448608 139 113 134
234.825867 125.010269 536.292908 137 111 131
-464.803864 306.492615 735.937439 37 16 9
