ply
format ascii 1.0
element vertex 1178
property float32 x
property float32 y
property float32 z
property uchar red
property uchar green
property uchar blue
end_header
44.566540 2.188644 680.934204 82 65 68
42.891949 2.246314 679.879333 69 52 54
42.247021 2.282213 678.637512 51 35 36
44.698174 2.252407 676.848755 33 19 18
45.088482 2.266225 675.430847 18 4 6
43.413116 2.323938 674.374451 12 1 2
43.805008 2.337669 672.959595 13 1 2
43.163277 2.373390 671.723938 17 3 6
43.557560 2.386988 670.313660 17 2 10
43.953457 2.400496 668.906494 23 5 15
44.350971 2.413913 667.502441 31 12 20
43.711620 2.449502 666.271423 44 25 24
44.111538 2.462786 664.872009 66 48 32
43.472984 2.498331 663.642456 77 58 36
43.875298 2.511481 662.247681 76 56 37
43.237560 2.546980 661.019714 71 50 34
44.684696 2.537517 659.467224 67 46 30
44.048561 2.572926 658.242371 53 32 21
43.412415 2.608337 657.017517 34 11 10
19.249222 -2.264643 652.000000 111 70 54
20.412771 -2.268117 653.000000 107 65 56
21.546841 -2.268117 653.000000 95 54 50
22.646133 -2.264643 652.000000 88 46 45
23.814936 -2.268117 653.000000 84 44 46
24.948961 -2.268117 653.000000 84 46 50
26.082989 -2.268117 653.000000 85 49 56
27.217058 -2.268117 653.000000 82 49 59
28.351084 -2.268117 653.000000 69 38 51
29.485153 -2.268117 653.000000 48 20 36
30.619177 -2.268117 653.000000 34 9 24
31.753204 -2.268117 653.000000 40 17 30
32.887276 -2.268117 653.000000 60 41 46
34.021301 -2.268117 653.000000 80 63 58
35.209206 -2.271590 654.000000 91 75 62
36.344967 -2.271590 654.000000 102 81 64
37.480728 -2.271590 654.000000 113 89 71
38.616539 -2.271590 654.000000 124 96 83
39.813084 -2.275064 655.000000 133 100 92
40.950626 -2.275064 655.000000 137 98 96
42.152382 -2.278537 656.000000 140 97 96
43.291618 -2.278537 656.000000 143 96 95
44.363167 -2.275064 655.000000 142 93 90
37.071754 -0.135767 744.652954 180 132 115
36.398823 -0.098309 743.357239 166 118 91
35.725864 -0.060849 742.061462 150 102 70
36.049801 -0.041598 740.515686 104 57 30
37.373009 -0.040686 738.724487 68 21 11
40.696335 -0.076543 736.445374 52 7 10
44.026096 -0.112758 734.178650 46 4 16
45.362083 -0.112558 732.412048 40 4 20
44.699551 -0.075679 731.136353 32 1 14
45.038689 -0.057273 729.619812 25 0 12
43.715202 0.016397 727.071533 19 0 19
40.041229 0.109056 726.505920 21 0 25
40.381969 0.127373 724.992493 21 0 29
40.724312 0.145600 723.482178 19 0 30
41.068233 0.163739 721.974854 17 0 28
40.406498 0.200574 720.700745 17 0 28
41.760891 0.199750 718.969543 17 1 28
43.118507 0.198745 717.244568 16 1 26
43.469650 0.216483 715.751160 16 1 25
41.801422 0.272060 714.708557 15 1 25
42.154167 0.289708 713.218262 14 1 25
41.496410 0.326322 711.951721 14 2 28
41.851559 0.343836 710.466064 15 3 31
41.194622 0.380404 709.201172 15 3 34
40.537674 0.416973 707.936218 16 3 36
41.911289 0.415078 706.242065 18 2 40
42.272015 0.432282 704.767090 20 3 43
41.617485 0.468716 703.506836 22 4 44
40.962952 0.505150 702.246582 24 5 44
41.326878 0.522175 700.777771 26 7 44
42.711700 0.519657 699.105164 28 9 41
42.059544 0.555959 697.849487 29 10 39
41.407410 0.592259 696.593811 31 12 38
39.733604 0.648147 695.540466 30 10 36
39.080654 0.684493 694.283264 27 8 34
39.451004 0.701161 692.826843 23 6 32
39.822926 0.717742 691.373413 20 5 30
39.171597 0.753997 690.119324 17 4 26
40.571621 0.750633 688.476013 14 4 21
40.948349 0.766946 687.031860 14 5 20
40.299419 0.803068 685.782349 18 7 21
41.706627 0.799304 684.152893 20 4 20
43.117050 0.795360 682.529602 23 4 20
42.471321 0.831304 681.286255 24 4 20
41.825577 0.867249 680.042908 21 2 17
40.148563 0.923315 678.983398 18 0 13
42.598248 0.898806 677.191589 15 0 9
42.986996 0.914450 675.770630 14 0 7
42.343670 0.950260 674.531921 14 0 5
40.665844 1.006371 673.470825 16 1 5
40.021709 1.042227 672.230591 19 3 8
40.413643 1.057693 670.815735 17 1 8
41.844082 1.052636 669.230957 23 5 13
41.202339 1.088358 667.995300 38 18 24
42.637554 1.083034 666.419739 53 35 32
41.997429 1.118667 665.187195 70 53 36
43.437443 1.113076 663.620911 77 60 36
42.798920 1.148619 662.391418 75 57 32
43.202061 1.163462 660.998169 72 52 29
43.606792 1.178216 659.607910 66 45 25
44.013153 1.192880 658.220886 53 32 18
43.377007 1.228290 656.995972 35 12 9
19.249222 -3.396933 652.000000 113 74 56
20.412771 -3.402143 653.000000 113 73 61
21.546841 -3.402143 653.000000 108 67 61
22.646133 -3.396933 652.000000 98 57 54
23.778467 -3.396933 652.000000 88 47 49
24.910755 -3.396933 652.000000 87 47 52
26.043043 -3.396933 652.000000 90 53 61
27.175377 -3.396933 652.000000 85 50 60
28.351084 -3.402143 653.000000 79 46 58
29.439999 -3.396933 652.000000 69 39 52
30.619177 -3.402143 653.000000 66 38 49
31.753204 -3.402143 653.000000 76 51 58
32.887276 -3.402143 653.000000 93 71 70
34.021301 -3.402143 653.000000 103 84 72
35.155369 -3.402143 653.000000 106 87 67
36.344967 -3.407353 654.000000 112 89 66
37.480728 -3.407353 654.000000 118 92 69
38.616539 -3.407353 654.000000 124 94 79
39.813084 -3.412563 655.000000 130 96 86
41.013145 -3.417773 656.000000 134 95 92
42.152382 -3.417773 656.000000 137 95 94
43.951553 -3.469873 666.000000 142 96 95
50.391136 -3.876255 744.000000 144 96 92
35.045269 -1.562950 745.139526 141 94 66
34.370735 -1.525402 743.840759 139 91 57
33.696171 -1.487853 742.541870 134 86 48
34.018555 -1.466777 740.993042 118 71 37
33.344818 -1.429273 739.695801 107 61 41
40.659191 -1.524248 736.422791 98 53 45
43.989128 -1.553520 734.156189 75 33 35
45.325207 -1.549848 732.389648 52 14 20
44.662674 -1.512969 731.113953 43 8 11
45.001854 -1.492828 729.597473 37 6 9
35.651836 -1.284540 728.950928 32 5 14
34.983677 -1.247348 727.664368 31 3 16
35.320461 -1.227072 726.143311 29 3 17
34.653126 -1.189926 724.858337 28 3 18
35.998810 -1.186789 723.110291 27 4 18
37.347710 -1.183831 721.368408 27 5 18
38.699791 -1.181050 719.632629 25 6 16
41.064011 -1.195588 717.676147 23 5 13
41.413605 -1.176026 716.179688 21 6 11
41.764763 -1.156551 714.686279 19 4 10
40.094913 -1.102622 713.640625 15 2 10
39.435558 -1.065920 712.371033 13 1 11
40.802071 -1.063942 710.663086 12 2 14
41.158054 -1.044736 709.178955 13 2 15
39.486588 -0.990717 708.130188 13 2 18
39.844173 -0.971600 706.649109 12 0 18
41.219456 -0.970110 704.958069 14 0 22
40.564129 -0.933632 703.696228 16 0 24
39.908802 -0.897154 702.434448 16 0 25
40.271965 -0.878347 700.964111 17 0 24
40.636757 -0.859631 699.496948 18 1 22
39.982998 -0.823240 698.238159 20 2 20
40.350197 -0.804658 696.775574 21 4 21
38.675545 -0.750462 695.720703 21 3 20
38.021790 -0.714071 694.461914 17 0 17
38.391380 -0.695623 693.003967 13 0 17
39.786667 -0.695247 691.351440 14 0 18
39.135342 -0.658991 690.097290 14 1 17
39.509731 -0.640809 688.648621 12 2 13
38.859177 -0.604597 687.395996 12 2 9
39.235973 -0.586549 685.951904 14 3 9
40.642467 -0.586797 684.320923 18 2 10
41.023262 -0.568972 682.884583 19 1 10
40.375935 -0.532939 681.638184 18 1 10
40.759106 -0.515247 680.206421 19 1 10
39.081249 -0.460871 679.145325 19 1 10
40.498142 -0.461699 677.534363 17 0 6
40.885342 -0.444230 676.110291 16 0 3
41.274143 -0.426851 674.689392 15 1 2
39.595463 -0.372430 673.626709 15 1 1
38.950527 -0.336530 672.384888 18 3 2
40.377834 -0.337937 670.794006 21 6 6
39.734501 -0.302126 669.555298 32 16 17
40.128899 -0.285059 668.145081 52 36 35
40.524872 -0.268078 666.737976 68 52 46
41.961796 -0.270020 665.165588 77 63 45
42.361778 -0.253263 663.766174 79 64 38
42.763374 -0.236596 662.369812 77 61 32
43.166561 -0.220017 660.976624 71 54 25
43.571335 -0.203527 659.586426 64 45 20
42.934414 -0.168073 658.360046 52 32 14
42.297466 -0.132618 657.133606 38 16 10
20.381510 -4.529254 652.000000 110 70 60
21.513844 -4.529254 652.000000 112 71 65
22.646133 -4.529254 652.000000 109 67 64
23.778467 -4.529254 652.000000 99 58 59
24.910755 -4.529254 652.000000 93 53 56
26.043043 -4.529254 652.000000 92 53 59
27.175377 -4.529254 652.000000 88 50 58
28.351084 -4.536201 653.000000 95 60 67
29.439999 -4.529254 652.000000 109 76 82
30.619177 -4.536201 653.000000 122 91 95
31.753204 -4.536201 653.000000 125 97 97
32.887276 -4.536201 653.000000 119 94 87
34.073399 -4.543148 654.000000 112 91 74
35.209206 -4.543148 654.000000 112 89 67
36.344967 -4.543148 654.000000 116 88 65
37.480728 -4.543148 654.000000 120 89 69
38.557487 -4.536201 653.000000 124 91 76
39.752300 -4.543148 654.000000 128 92 82
40.888107 -4.543148 654.000000 133 94 89
42.152382 -4.557042 656.000000 139 98 95
34.013153 -3.011718 745.371338 139 92 55
33.337826 -2.974126 744.071045 139 92 51
32.662460 -2.936533 742.770630 136 90 45
31.987133 -2.898941 741.470337 139 93 51
32.309555 -2.876129 739.921509 141 96 65
35.617138 -2.815682 733.272400 92 57 46
34.947407 -2.778402 731.982849 80 45 32
34.277645 -2.741120 730.693237 67 30 19
34.611282 -2.718932 729.166016 64 26 17
33.942322 -2.681695 727.877930 60 23 15
34.278347 -2.659639 726.355347 58 22 15
33.610218 -2.622448 725.068848 58 24 16
32.942062 -2.585256 723.782349 58 26 16
32.273926 -2.548064 722.495911 58 29 16
34.630257 -2.556948 720.524048 57 30 14
36.991413 -2.566100 718.561462 52 27 6
38.347610 -2.560071 716.833496 47 25 4
37.685856 -2.523235 715.559326 41 20 3
37.024124 -2.486400 714.285217 34 15 2
37.374535 -2.465146 712.790283 27 9 0
39.752495 -2.475232 710.860046 23 6 0
40.107719 -2.454245 709.374390 20 5 0
39.449974 -2.417633 708.107910 19 5 0
38.792236 -2.381020 706.841492 19 4 1
39.150650 -2.360211 705.361938 18 3 1
38.493725 -2.323644 704.097107 17 1 0
38.854557 -2.302969 702.622253 17 1 1
39.216961 -2.282382 701.150391 19 1 2
39.581005 -2.261886 699.681702 20 1 2
38.926449 -2.225451 698.421387 19 1 2
39.292885 -2.205088 696.957336 18 1 2
38.639153 -2.168699 695.698608 20 1 1
37.985401 -2.132308 694.439819 18 1 1
39.378403 -2.128329 692.782715 18 2 2
39.750412 -2.108276 691.329407 21 4 4
39.099087 -2.072020 690.075317 21 6 4
38.447758 -2.035765 688.821167 19 6 3
37.796398 -1.999507 687.567017 18 6 2
38.172440 -1.979679 686.121460 19 7 2
38.550053 -1.959938 684.678894 22 10 1
38.929295 -1.940289 683.239502 21 8 0
38.280361 -1.904166 681.989990 21 7 0
37.631409 -1.868043 680.740417 22 7 0
36.982479 -1.831921 679.490967 20 6 0
38.397869 -1.829187 677.876953 19 4 0
38.783508 -1.809893 676.449890 20 6 0
39.170746 -1.790689 675.025879 21 8 0
39.559563 -1.771571 673.604919 26 13 0
39.949997 -1.752545 672.187012 33 20 2
39.305851 -1.716689 670.946777 43 31 16
39.698689 -1.697796 669.533508 56 44 31
39.055370 -1.661986 668.294861 72 60 50
39.450588 -1.643226 666.886169 81 70 57
39.847420 -1.624555 665.480652 83 74 53
41.286007 -1.623113 663.911316 81 71 43
40.645882 -1.587480 662.678772 79 67 33
42.089294 -1.586306 661.118774 72 58 23
42.493324 -1.568037 659.727112 65 48 17
41.855587 -1.532538 658.499146 52 34 11
41.217838 -1.497038 657.271179 43 21 10
20.381510 -5.661544 652.000000 110 71 65
21.513844 -5.661544 652.000000 113 72 69
22.680866 -5.670228 653.000000 114 73 72
23.778467 -5.661544 652.000000 110 69 69
24.910755 -5.661544 652.000000 102 61 63
26.043043 -5.661544 652.000000 96 56 60
27.175377 -5.661544 652.000000 99 60 64
28.307667 -5.661544 652.000000 105 68 72
29.439999 -5.661544 652.000000 116 81 83
30.572289 -5.661544 652.000000 126 93 92
31.753204 -5.670228 653.000000 126 95 91
32.887276 -5.670228 653.000000 118 90 79
34.021301 -5.670228 653.000000 112 86 68
35.209206 -5.678911 654.000000 114 87 66
36.289394 -5.670228 653.000000 119 86 66
37.423420 -5.670228 653.000000 123 88 70
38.616539 -5.678911 654.000000 124 88 74
39.752300 -5.678911 654.000000 125 87 77
42.138508 -5.852578 674.000000 129 90 84
33.975563 -4.476782 745.348511 141 96 52
32.304829 -4.426280 744.301270 139 94 48
31.628670 -4.388643 742.999329 139 95 46
30.952532 -4.351006 741.697449 140 96 50
32.272007 -4.339457 739.898682 141 99 62
36.249592 -4.305875 734.539246 133 94 81
35.579857 -4.268595 733.249756 132 97 81
34.910126 -4.231315 731.960205 129 92 76
34.240364 -4.194033 730.670593 132 91 74
33.570633 -4.156753 729.381042 131 89 72
32.900879 -4.119472 728.091431 129 87 71
32.231148 -4.082192 726.801880 126 86 68
31.561415 -4.044912 725.512390 123 84 68
31.898258 -4.021164 723.991272 120 84 65
31.229328 -3.983928 722.703247 119 84 63
31.568577 -3.960314 721.186768 118 85 60
32.918465 -3.950458 719.446594 115 84 54
33.261738 -3.927067 717.937866 110 81 48
31.585371 -3.876252 716.879761 104 77 41
30.918844 -3.839150 715.596375 97 73 37
31.264490 -3.815892 714.092224 92 69 35
36.676815 -3.862175 711.495300 87 66 32
38.043503 -3.853252 709.787476 84 64 31
37.384140 -3.816550 708.517883 81 62 31
37.740219 -3.793873 707.033813 77 59 32
37.081665 -3.757215 705.765808 74 56 31
38.457157 -3.748783 704.074890 70 50 30
37.800220 -3.712215 702.809998 68 48 29
39.180481 -3.704050 701.128235 69 46 30
38.525154 -3.667572 699.866455 66 44 28
38.890015 -3.645382 698.399292 62 38 22
38.235485 -3.608948 697.138977 57 34 17
38.602764 -3.586895 695.676514 51 29 12
38.971619 -3.564928 694.217041 53 32 16
39.342102 -3.543052 692.760681 58 38 25
39.714157 -3.521264 691.307373 66 46 34
39.062828 -3.485009 690.053284 74 55 40
38.411503 -3.448753 688.799133 81 63 44
37.760139 -3.412496 687.544983 88 71 46
38.136230 -3.390932 686.099426 93 77 49
38.513885 -3.369455 684.656921 86 72 40
37.864162 -3.333289 683.405884 85 72 41
37.214424 -3.297122 682.154846 86 71 44
36.564682 -3.260954 680.903809 86 70 45
34.883533 -3.209873 679.836487 82 66 42
36.297409 -3.203579 678.219482 79 63 38
36.681492 -3.182460 676.789368 81 64 38
37.067177 -3.161430 675.362305 83 68 39
38.489048 -3.155581 673.760681 81 66 36
38.878727 -3.134773 672.341309 84 71 41
38.233780 -3.098873 671.099487 88 75 49
39.662880 -3.093426 669.511780 88 76 52
39.019562 -3.057616 668.273071 86 75 55
38.376202 -3.021804 667.034302 84 75 54
39.811699 -3.016712 665.458923 83 75 51
39.169956 -2.980990 664.223267 81 74 43
38.528225 -2.945269 662.987671 77 68 30
39.970139 -2.940535 661.424622 73 61 22
40.372581 -2.920439 660.029846 67 54 17
40.776672 -2.900434 658.638245 55 39 11
41.182339 -2.880517 657.249634 46 26 10
21.513844 -6.793866 652.000000 109 69 72
22.680866 -6.804286 653.000000 112 70 72
23.778467 -6.793866 652.000000 112 71 71
24.910755 -6.793866 652.000000 108 68 68
26.043043 -6.793866 652.000000 106 66 66
27.175377 -6.793866 652.000000 113 74 76
28.307667 -6.793866 652.000000 113 74 77
29.439999 -6.793866 652.000000 111 74 75
30.572289 -6.793866 652.000000 111 76 74
31.753204 -6.804286 653.000000 111 78 73
32.887276 -6.804286 653.000000 111 79 69
34.177601 -6.835546 656.000000 110 79 65
35.316879 -6.835546 656.000000 110 79 62
36.400539 -6.825126 655.000000 118 81 67
39.142719 -7.116887 683.000000 121 82 70
41.568871 -7.335708 704.000000 121 82 72
31.271740 -5.881948 744.531433 138 96 48
29.598530 -5.833047 743.479492 136 95 45
29.917849 -5.806585 741.924561 134 94 48
36.212311 -5.758830 734.516663 147 109 103
35.542576 -5.721550 733.227112 148 111 103
33.870998 -5.672740 732.178284 150 112 102
33.200436 -5.635414 730.887146 155 114 102
33.533352 -5.609708 729.358398 155 113 101
32.863598 -5.572427 728.068787 154 113 101
32.193867 -5.535147 726.779297 154 114 102
31.524134 -5.497867 725.489746 154 114 104
30.854374 -5.460585 724.200134 153 115 102
30.184641 -5.423305 722.910583 149 113 98
30.523140 -5.397911 721.392578 146 111 92
30.863255 -5.372606 719.877747 142 107 84
31.204975 -5.347390 718.365967 137 105 77
30.537619 -5.310242 717.080994 134 103 73
30.881741 -5.285161 715.573853 131 102 70
30.215179 -5.248057 714.290405 129 101 69
34.613918 -5.271726 711.911255 126 101 69
36.992943 -5.271442 709.982788 124 100 70
36.332787 -5.234695 708.711670 123 100 71
35.672657 -5.197949 707.440613 125 102 74
37.045006 -5.185867 705.743530 126 102 76
38.420589 -5.173964 704.052673 126 100 78
37.763653 -5.137396 702.787781 127 100 80
38.125351 -5.113293 701.314453 128 99 82
37.469223 -5.076770 700.051086 127 98 81
37.833321 -5.052801 698.582397 124 95 79
38.199051 -5.028921 697.116882 123 94 78
37.544518 -4.992487 695.856567 125 97 80
37.912621 -4.968740 694.395630 121 95 78
38.282341 -4.945084 692.937744 119 94 78
38.653645 -4.921516 691.482910 120 95 80
39.026573 -4.898038 690.031250 123 99 83
37.349388 -4.848916 688.971619 126 102 84
36.697235 -4.812614 687.715942 128 105 84
37.072559 -4.789269 686.268860 129 106 82
36.421204 -4.753012 685.014709 131 111 85
35.769878 -4.716757 683.760620 131 112 85
36.148407 -4.693590 682.319702 133 112 89
34.467197 -4.644244 681.252319 132 110 89
33.815868 -4.607988 679.998230 130 108 88
35.229023 -4.598176 678.379700 128 104 84
34.579300 -4.562010 677.128723 126 103 80
35.997284 -4.552467 675.519470 125 103 77
35.349129 -4.516388 674.271484 125 104 75
36.771923 -4.507113 672.671509 121 102 71
38.197876 -4.498014 671.077637 113 96 65
38.590004 -4.475605 669.662964 99 85 53
38.983749 -4.453286 668.251343 87 74 45
39.379055 -4.431054 666.842712 80 68 40
39.775978 -4.408911 665.437256 78 69 39
39.134232 -4.373189 664.201599 76 69 35
38.492504 -4.337467 662.965942 74 66 25
39.934505 -4.329262 661.403015 72 65 22
39.294350 -4.293628 660.170410 71 61 20
39.697670 -4.271842 658.777222 64 51 18
27.024300 -9.008100 741.000000 106 66 64
28.463976 -9.056726 745.000000 107 66 65
28.120096 -8.558303 704.000000 110 70 69
28.425777 -8.290856 682.000000 109 69 70
29.610167 -8.290856 682.000000 110 70 72
31.336441 -8.436735 694.000000 111 72 72
32.541668 -8.436735 694.000000 111 74 71
33.746895 -8.436735 694.000000 110 74 68
35.959438 -8.679870 714.000000 108 74 63
37.720398 -8.801436 724.000000 108 74 59
29.243071 -7.331608 745.014587 131 93 45
28.564514 -7.293837 743.708069 130 93 43
27.885981 -7.256067 742.401550 130 94 48
35.505295 -7.174464 733.204468 148 112 108
32.831772 -7.117594 732.396301 146 110 104
32.160416 -7.080224 731.103638 149 111 106
32.492577 -7.052737 729.573364 151 113 107
32.826317 -7.025341 728.046143 152 115 109
32.156586 -6.988060 726.756653 152 115 109
31.486853 -6.950780 725.467102 150 114 109
30.817093 -6.913499 724.177490 150 114 109
30.147360 -6.876219 722.887939 149 114 106
30.485905 -6.849088 721.369995 146 112 102
30.826065 -6.822047 719.855164 144 109 94
30.157934 -6.784856 718.568665 141 108 89
30.500471 -6.757948 717.058411 140 108 86
30.844639 -6.731132 715.551331 139 109 84
30.178078 -6.694028 714.267883 136 108 82
33.563938 -6.698598 712.107971 133 106 81
34.928398 -6.682599 710.395630 132 105 84
36.296040 -6.666778 708.689331 130 105 85
35.635914 -6.630032 707.418274 128 103 85
35.992046 -6.603881 705.934204 129 104 86
38.384022 -6.599104 704.030457 130 103 86
36.709187 -6.551849 702.975403 132 103 88
38.088829 -6.536696 701.292297 135 103 92
37.432701 -6.500174 700.028931 134 102 92
37.796844 -6.474468 698.560242 133 101 92
36.120411 -6.427126 697.502136 132 101 92
37.508083 -6.412420 695.834473 132 103 93
37.876232 -6.386937 694.373535 129 102 91
38.245998 -6.361544 692.915649 128 102 90
37.593048 -6.325198 691.658447 126 102 90
37.965210 -6.299940 690.205200 127 102 90
36.287182 -6.252508 689.144043 128 103 90
35.634232 -6.216162 687.886841 129 103 90
36.008804 -6.191038 686.438232 128 104 90
36.384949 -6.165999 684.992676 128 106 91
35.733620 -6.129744 683.738586 128 107 92
35.082294 -6.093488 682.484497 131 108 96
34.430939 -6.057231 681.230286 132 109 98
33.779613 -6.020976 679.976196 135 110 100
34.160557 -5.996207 678.539917 136 111 100
34.543133 -5.971527 677.106750 133 108 95
33.893402 -5.935360 675.855713 130 106 88
33.243660 -5.899192 674.604614 126 104 81
35.700428 -5.898022 672.825623 120 100 73
37.125671 -5.885406 671.230286 108 91 59
38.554150 -5.872971 669.641174 94 80 45
38.947941 -5.848916 668.229614 82 72 35
38.304577 -5.813104 666.990845 75 67 30
37.661259 -5.777294 665.752136 72 65 28
38.058212 -5.753414 664.346619 68 64 25
37.415680 -5.717648 663.109497 72 68 24
37.815052 -5.693905 661.708679 75 69 25
37.173309 -5.658183 660.473022 77 69 26
38.618591 -5.646682 658.916199 77 66 30
24.541384 -8.734899 744.690918 126 93 44
23.859657 -8.696951 743.378296 125 93 49
35.468014 -8.627419 733.181824 138 103 100
31.792467 -8.565962 732.614258 137 103 100
30.117563 -8.520444 731.559143 135 103 103
30.448172 -8.491133 730.025879 135 105 105
31.784697 -8.470103 728.259583 136 106 107
31.114162 -8.432778 726.968506 137 107 108
31.449572 -8.403735 725.444458 138 109 110
30.779812 -8.366454 724.154846 141 111 113
30.110079 -8.329173 722.865295 142 111 112
29.440319 -8.291892 721.575684 140 109 107
29.779737 -8.263071 720.059387 138 107 103
30.120743 -8.234340 718.546082 139 109 100
29.452585 -8.197147 717.259583 139 110 98
30.807537 -8.177142 715.528748 138 110 95
31.153316 -8.148676 714.024719 136 109 94
33.527016 -8.137666 712.085571 132 106 93
33.877625 -8.109468 710.590820 129 104 97
33.215069 -8.072588 709.315063 124 100 96
34.583618 -8.053341 707.610413 122 99 97
33.922668 -8.016549 706.337830 122 99 97
37.330303 -8.015378 704.219604 121 96 94
34.636688 -7.960868 703.372925 122 94 93
36.014828 -7.942153 701.686707 125 94 95
35.357090 -7.905541 700.420288 126 94 97
35.719677 -7.878011 698.948547 130 98 104
36.083885 -7.850570 697.479980 128 98 105
36.449711 -7.823220 696.014465 130 102 107
36.817093 -7.795957 694.552002 127 103 105
37.186111 -7.768784 693.092651 123 102 100
37.556702 -7.741699 691.636353 120 100 97
36.903770 -7.705354 690.379150 121 100 97
34.198952 -7.650220 689.510864 121 100 98
33.544399 -7.613785 688.250549 121 99 98
33.917416 -7.586834 686.798889 119 98 99
35.320347 -7.569501 685.160461 119 100 102
33.639076 -7.523628 684.093140 119 101 104
34.016090 -7.496901 682.649170 122 102 106
33.363941 -7.460599 681.393494 124 104 109
32.711807 -7.424299 680.137817 128 106 111
33.091995 -7.397748 678.700012 130 108 112
32.440678 -7.361492 677.445923 130 108 110
31.789343 -7.325236 676.191833 128 106 104
31.137981 -7.288979 674.937622 120 101 92
34.628845 -7.292441 672.979736 112 95 77
36.053391 -7.276310 671.382874 97 84 58
37.481155 -7.260359 669.792297 84 76 41
38.912128 -7.244586 668.207825 73 69 28
38.268768 -7.208774 666.969055 66 64 20
37.625450 -7.172964 665.730408 63 64 18
36.982101 -7.137152 664.491638 65 66 20
36.338768 -7.101342 663.252930 71 68 24
35.695435 -7.065531 662.014221 74 70 26
35.052074 -7.029719 660.775452 82 75 33
34.408756 -6.993909 659.536743 85 74 38
22.510672 -10.201828 745.170715 116 86 42
21.827335 -10.163791 743.854980 116 86 48
29.077322 -9.973933 731.775513 118 88 91
30.410759 -9.949254 730.003174 118 90 94
30.742987 -9.918296 728.472900 119 90 95
30.071651 -9.880927 727.180298 119 90 96
30.406303 -9.850102 725.654724 120 92 97
29.735748 -9.812777 724.363586 122 94 97
29.065214 -9.775452 723.072510 123 94 95
29.403038 -9.744804 721.553040 121 92 92
29.742500 -9.714248 720.036743 126 96 94
29.073563 -9.677012 718.748718 127 97 92
29.415394 -9.646588 717.237000 128 97 90
29.758842 -9.616255 715.728394 126 97 88
30.103872 -9.586009 714.222778 123 95 86
32.476894 -9.569745 712.282227 118 91 86
33.840744 -9.546760 710.568420 118 92 92
34.192982 -9.516914 709.076721 118 93 98
32.515659 -9.473000 708.016968 114 90 98
32.869484 -9.443243 706.528320 115 91 98
36.276505 -9.435084 704.408752 118 92 96
33.582005 -9.384001 703.560425 124 96 99
33.940632 -9.354512 702.081055 128 96 100
33.281300 -9.317811 700.811523 130 96 103
33.642338 -9.288455 699.336792 118 84 94
32.983803 -9.251799 698.068787 114 82 93
33.347263 -9.222579 696.598694 115 86 95
33.712296 -9.193446 695.131592 112 87 93
34.078957 -9.164404 693.667725 109 87 90
34.447189 -9.135449 692.206787 108 88 87
33.791862 -9.098971 690.945007 110 89 89
33.136536 -9.062493 689.683167 112 91 90
32.481171 -9.026012 688.421326 111 89 91
32.853432 -8.997283 686.968140 110 88 93
33.227264 -8.968640 685.518005 107 86 94
32.573540 -8.932251 684.259277 108 88 98
31.919811 -8.895862 683.000549 111 90 100
32.296844 -8.867396 681.556641 114 92 103
32.675507 -8.839023 680.115784 117 94 105
33.055740 -8.810737 678.677979 120 97 108
32.404419 -8.774482 677.423889 122 99 109
31.753086 -8.738225 676.169800 121 99 105
31.101725 -8.701968 674.915588 116 95 95
34.592766 -8.698486 672.957825 108 90 81
36.017403 -8.678884 671.361023 96 82 61
37.445255 -8.659461 669.770508 84 74 43
37.838318 -8.631888 668.357361 74 68 27
37.194172 -8.596032 667.117126 68 65 19
36.550037 -8.560177 665.876831 66 65 18
35.905888 -8.524322 664.636536 68 68 21
35.261753 -8.488466 663.396301 74 70 27
34.617634 -8.452612 662.156067 77 72 31
33.973484 -8.416756 660.915771 82 75 35
32.285755 -8.372261 659.836060 82 71 37
31.640806 -8.336361 658.594238 72 56 33
22.472633 -11.684294 745.147644 91 60 30
21.789297 -11.646256 743.831848 94 63 38
21.105968 -11.608219 742.516174 97 66 52
30.373343 -11.407417 729.980408 96 64 70
30.705616 -11.374722 728.450195 97 64 71
30.034281 -11.337354 727.157593 96 64 70
30.368979 -11.304793 725.632080 95 64 67
29.698423 -11.267467 724.340942 95 64 64
30.035519 -11.235041 722.820007 94 62 60
29.365757 -11.197759 721.530396 92 60 56
29.705265 -11.165468 720.014160 93 58 54
29.036327 -11.128232 718.726135 94 60 53
29.378202 -11.096071 717.214417 94 61 52
30.733332 -11.069124 715.483704 92 60 50
32.091637 -11.042351 713.759094 86 54 47
34.466396 -11.020970 711.821655 81 51 48
34.817890 -10.989346 710.328491 89 59 64
34.156147 -10.952511 709.054321 98 69 78
32.478779 -10.910331 707.994568 103 77 88
32.832645 -10.878839 706.505981 106 80 88
36.239845 -10.863737 704.386475 123 93 97
33.545258 -10.816125 703.538147 136 104 104
33.903931 -10.784900 702.058777 136 100 99
33.244598 -10.748198 700.789246 127 88 88
33.605679 -10.717109 699.314514 80 41 44
32.947147 -10.680451 698.046509 66 28 32
33.310650 -10.649495 696.576477 64 30 35
33.675724 -10.618626 695.109436 63 33 35
35.066063 -10.593637 693.446472 61 35 34
35.435139 -10.562991 691.987183 62 37 33
33.755383 -10.520679 690.922852 65 40 36
32.074020 -10.478279 689.855408 68 44 39
32.444691 -10.447721 688.399170 69 43 40
31.789366 -10.411242 687.137329 67 41 40
33.190876 -10.386877 685.495911 67 40 43
31.507917 -10.344385 684.425415 69 42 47
30.853386 -10.307951 683.165161 73 47 52
31.229668 -10.277708 681.719666 79 51 58
31.607574 -10.247553 680.277344 84 56 65
33.019482 -10.223765 678.656006 92 63 73
31.334915 -10.181185 677.582397 98 68 79
31.716829 -10.151255 676.147766 100 71 80
31.065468 -10.114997 674.893616 99 71 77
32.485424 -10.091657 673.287720 96 70 68
34.944973 -10.074995 671.513550 90 68 55
37.409355 -10.058602 669.748657 84 66 42
37.802464 -10.029293 668.335632 77 64 29
37.158314 -9.993437 667.095337 72 62 21
36.514179 -9.957582 665.855042 70 62 18
35.870033 -9.921726 664.614807 70 63 20
34.184677 -9.879103 663.539673 73 65 27
33.539742 -9.843203 662.297852 74 66 30
33.937630 -9.814160 660.893982 76 66 30
32.249855 -9.771402 659.814270 72 58 28
31.604906 -9.735502 658.572449 64 47 26
21.438122 -13.164179 745.375854 95 62 40
20.753984 -13.126097 744.058594 97 65 47
19.071777 -13.085383 742.989624 101 69 60
29.332256 -12.862597 730.195190 97 61 65
27.654823 -12.822151 729.135376 98 63 68
29.996912 -12.793738 727.134888 98 64 66
30.331654 -12.759442 725.609375 97 63 62
29.661098 -12.722116 724.318237 95 61 57
29.998238 -12.687954 722.797363 93 58 53
29.328478 -12.650673 721.507751 91 56 48
29.668028 -12.616645 719.991516 91 55 47
30.009169 -12.582706 718.478333 92 56 46
30.351883 -12.548854 716.968201 93 57 45
31.707903 -12.518478 715.239075 90 56 44
33.067093 -12.488279 713.516052 84 51 44
34.429520 -12.458261 711.799316 79 48 46
34.781055 -12.424899 710.306091 89 58 65
34.119312 -12.388063 709.031982 102 72 82
33.457573 -12.351229 707.757813 101 72 84
32.795811 -12.314392 706.483582 102 73 81
35.185913 -12.288650 704.575562 132 101 102
33.508514 -12.248208 703.515808 148 112 109
32.848358 -12.211460 702.244690 150 109 104
32.188221 -12.174715 700.973633 133 90 84
32.548542 -12.141842 699.497375 73 29 26
32.910492 -12.109062 698.024231 57 14 14
33.274036 -12.076371 696.554199 64 25 26
33.639156 -12.043767 695.087219 62 28 27
34.005909 -12.011252 693.623352 60 30 25
34.374229 -11.978827 692.162476 60 31 24
33.718903 -11.942348 690.900696 62 34 25
32.037498 -11.901682 689.833252 64 36 26
32.408215 -11.869390 688.377014 64 34 26
31.752888 -11.832911 687.115173 61 31 25
32.126011 -11.800752 685.663574 59 29 26
32.500763 -11.768683 684.215088 56 26 25
30.816952 -11.727884 683.143005 55 25 25
30.162397 -11.691449 681.882690 56 26 27
31.571230 -11.664014 680.255310 58 27 31
30.918274 -11.627667 678.998047 60 30 36
30.265350 -11.591323 677.740845 63 32 41
30.646494 -11.559609 676.304688 64 33 42
31.029213 -11.527986 674.871582 72 41 48
31.413576 -11.496451 673.441589 72 44 45
31.799500 -11.465005 672.014648 72 48 39
36.336170 -11.452894 669.899658 73 51 33
37.766609 -11.426661 668.313843 70 52 24
38.161335 -11.395703 666.903809 67 52 18
36.478325 -11.354949 665.833313 64 50 14
34.793701 -11.314104 664.759644 62 50 15
34.148777 -11.278205 663.517883 65 52 20
33.503841 -11.242305 662.276062 64 52 21
32.858894 -11.206405 661.034241 64 49 19
17.723957 -14.607753 744.784851 100 66 50
17.037420 -14.569537 743.463013 102 68 60
25.279926 -14.317679 731.122375 100 62 60
24.603769 -14.280042 729.820435 102 64 63
31.300449 -14.215470 725.353882 100 64 59
30.630690 -14.178188 724.064270 99 64 56
28.953239 -14.139482 723.004517 99 63 53
29.291197 -14.103626 721.485107 98 61 50
30.640106 -14.069379 719.742188 98 61 49
30.982092 -14.033749 718.230591 98 61 46
30.314735 -13.996601 716.945618 96 61 45
31.670845 -13.962754 715.216553 95 61 46
31.005085 -13.925695 713.934692 89 57 48
34.392639 -13.895593 711.776917 84 53 51
-7.848824 -13.785601 719.416504 91 61 67
-54.215614 -13.664645 727.793335 101 72 81
-30.051537 -13.479044 713.557617 139 93 82
32.945660 -13.432380 693.800110 76 42 36
34.337749 -13.400534 692.140320 73 40 31
32.657093 -13.361649 691.074402 72 40 28
32.000973 -13.325126 689.811035 73 41 27
31.344816 -13.288601 688.547607 71 38 25
30.688688 -13.252078 687.284302 69 36 24
32.089573 -13.220724 685.641418 69 36 28
31.435049 -13.184291 684.381165 63 31 26
30.780516 -13.147857 683.120911 59 28 23
30.125963 -13.111422 681.860596 59 28 25
31.534885 -13.080513 680.233215 58 28 26
30.881927 -13.044167 678.975952 57 27 29
30.229004 -13.007822 677.718811 59 28 33
29.576069 -12.971477 676.461609 60 30 35
30.992956 -12.941013 674.849548 60 30 36
32.413090 -12.910731 673.243774 60 31 33
32.799862 -12.877592 671.818420 60 34 28
31.113602 -12.838396 670.741638 62 37 24
38.125523 -12.791374 666.882080 59 40 15
35.402748 -12.749146 665.979675 57 39 14
33.717262 -12.709993 664.904419 56 38 13
33.071541 -12.674049 663.661133 57 39 15
32.425816 -12.638106 662.417786 55 38 13
17.685741 -16.097120 744.761658 105 70 55
16.999205 -16.058905 743.439758 107 71 63
25.242290 -15.784479 731.099487 103 65 58
24.566132 -15.746841 729.797607 102 64 58
29.253916 -15.556540 721.462463 101 64 52
30.602915 -15.518821 719.719604 100 63 48
30.944946 -15.481456 718.208008 99 64 45
30.277590 -15.444307 716.923035 99 65 44
31.633787 -15.406987 715.194031 96 64 43
30.968027 -15.369928 713.912170 87 57 42
32.620571 -14.785052 691.052185 76 45 32
30.938274 -14.747814 689.983154 77 46 31
31.308294 -14.712006 688.525452 77 44 28
30.652164 -14.675483 687.262085 75 42 28
31.024574 -14.639807 685.809021 71 37 27
31.398615 -14.604221 684.359070 67 34 25
31.774252 -14.568727 682.912170 65 32 24
30.901707 -16.172997 689.960938 77 49 34
30.244755 -16.136427 688.695984 76 48 32
30.615641 -16.098927 687.239929 75 45 30
29.959484 -16.062403 685.976501 75 41 30
31.362181 -16.024197 684.336914 73 38 28
29.838888 -17.600891 690.132996 75 49 36
31.235247 -17.558855 688.481079 72 47 32
30.579119 -17.522331 687.217712 71 43 29
29.922962 -17.485807 685.954346 73 40 30
32.225819 -18.977850 688.266235 70 46 32
31.570492 -18.941370 687.004395 69 44 30
30.915136 -18.904892 685.742554 70 40 31
28.626423 -8.185743 744.950745 17 12 41
30.058865 -8.209307 744.967163 73 61 71
31.440994 -9.221743 744.775635 93 72 70
32.975903 -7.267590 745.207886 104 74 62
34.410076 -7.291182 745.224304 122 86 63
35.844307 -7.314775 745.240723 130 94 56
37.335796 -6.349607 745.465149 134 97 52
23.159964 -1.655954 744.778809 34 18 55
24.519457 -3.658926 744.382935 27 19 52
25.915394 -4.672199 744.193176 24 21 51
27.307861 -5.685409 744.003418 28 23 55
28.649988 -7.688098 743.607361 31 21 48
30.082428 -7.711661 743.623779 85 69 81
31.414139 -9.714182 743.227600 100 75 76
32.843105 -9.737688 743.243958 109 76 70
34.272076 -9.761194 743.260315 125 88 72
35.812298 -7.805917 743.689392 131 94 65
37.359417 -5.850755 744.118469 134 96 61
38.854458 -4.885044 744.341309 135 98 61
40.352917 -3.919384 744.564148 132 94 65
41.917397 -1.964511 744.993530 124 86 73
43.488873 -0.009747 745.422913 137 102 103
14.763124 6.911106 744.961914 95 64 61
16.188551 5.896746 744.774170 95 65 61
17.610561 4.882445 744.586365 92 65 59
19.063837 4.858539 744.602966 93 68 63
20.480581 3.844325 744.415100 84 61 67
21.893909 2.830167 744.227234 55 31 59
23.103693 -3.135196 743.016602 27 6 43
24.543135 -3.158875 743.033081 27 12 48
25.895569 -5.162942 742.640381 30 18 50
27.331482 -5.186563 742.656799 49 38 66
28.673552 -7.190458 742.264038 73 58 79
30.105991 -7.214021 742.280396 105 83 94
31.437647 -9.217745 741.887512 114 85 89
32.866611 -9.241251 741.903870 119 82 82
34.349476 -8.274737 742.124939 135 94 89
35.835865 -7.308276 742.346008 142 103 90
37.383038 -5.351909 742.771912 141 102 84
38.878109 -4.385591 742.993103 138 100 78
40.376595 -3.419332 743.214294 137 99 84
41.941132 -1.463248 743.640381 122 83 86
43.576981 1.482572 744.271362 128 94 105
45.091095 2.448577 744.492737 159 133 146
46.676521 4.404315 744.919067 187 164 179
48.268837 6.359942 745.345459 216 190 208
9.095994 13.459874 744.745361 91 63 52
10.563216 13.435739 744.762146 93 62 58
11.951959 10.438356 744.170654 94 62 60
13.358162 8.432197 743.781860 93 62 60
14.787086 7.417175 743.595764 95 63 61
16.181135 5.411216 743.206848 95 64 60
17.634466 5.387309 743.223450 92 64 58
19.052919 4.372465 743.037231 93 67 63
20.467901 3.357672 742.851013 88 64 68
21.841169 1.352055 742.461853 70 45 67
23.127371 -2.635152 741.666748 52 28 58
24.525043 -3.649660 741.480286 45 25 54
25.919189 -4.664104 741.293762 51 33 58
27.264622 -6.669263 740.904297 69 52 73
28.697115 -6.692828 740.920715 88 68 84
30.032129 -8.697816 740.531067 112 86 96
31.410702 -9.712007 740.344421 119 86 92
32.837933 -9.735484 740.360718 124 84 88
34.265163 -9.758962 740.377075 142 100 102
35.803768 -7.801245 740.799622 149 107 108
37.291866 -6.834210 741.019104 149 110 106
38.783493 -5.867236 741.238586 146 108 98
40.217670 -5.890828 741.255005 148 110 106
41.714451 -4.923934 741.474609 118 80 95
43.407780 -0.985734 742.303772 100 66 87
44.982792 0.971379 742.726746 108 83 100
46.632614 3.918784 743.352966 147 126 145
48.223251 5.875645 743.776062 172 150 176
49.820835 7.832392 744.199280 195 171 201
51.352402 8.798710 744.419250 206 180 211
52.887379 9.764976 744.639282 213 183 213
54.502380 11.721437 745.062683 218 184 211
56.124275 13.677784 745.486145 216 179 204
-1.055287 23.066021 745.060364 90 58 71
0.427505 23.041628 745.077332 91 58 68
1.910327 23.017237 745.094299 92 59 59
3.361672 21.009125 744.709290 92 60 54
4.823504 19.992964 744.525146 91 60 52
6.243415 16.993254 743.938965 90 61 50
7.694885 15.977262 743.754761 91 62 50
9.120130 13.969580 743.369446 92 63 54
10.562918 12.953731 743.185120 94 63 60
11.949838 9.954564 742.598511 94 62 64
13.354247 7.947230 742.212952 94 62 62
14.811050 7.923266 742.229614 95 62 62
16.205042 5.916099 741.843933 95 64 60
17.625259 4.900621 741.659363 93 63 58
19.041946 3.885195 741.474792 95 68 62
20.455162 2.869833 741.290100 94 68 67
21.826637 0.863041 740.904175 87 60 72
23.151051 -2.135098 740.316833 80 55 70
24.506897 -4.141637 739.930725 79 54 66
25.942810 -4.165258 739.947205 83 60 70
27.288185 -6.171620 739.560913 93 71 82
28.626669 -8.177875 739.174622 102 78 88
30.055635 -8.201381 739.190979 117 87 96
31.383701 -10.207458 738.804504 119 85 92
32.809200 -10.230908 738.820862 122 81 89
34.234692 -10.254357 738.837158 140 97 105
35.715931 -9.286608 739.054932 150 108 118
37.315430 -6.336567 739.675720 152 112 119
38.747929 -6.360131 739.692139 148 110 108
40.241264 -5.392581 739.910034 152 115 117
41.800709 -3.433997 740.329529 102 63 86
43.302780 -2.466590 740.547546 64 27 58
44.874371 -0.508211 740.967163 55 27 52
46.588657 3.432057 741.790100 106 84 113
48.177612 5.390155 742.209961 149 128 169
49.844830 8.339083 742.831482 156 134 182
51.376423 9.306004 743.049866 168 142 193
52.911430 10.272868 743.268250 188 160 207
54.449970 11.239680 743.486694 211 178 219
56.070179 13.197260 743.906860 217 182 218
57.537346 13.173125 743.923645 217 180 210
59.086300 14.139766 744.142212 224 187 210
60.722141 16.097088 744.562622 224 189 204
62.450184 19.045013 745.184814 224 191 203
64.014709 20.011395 745.403564 228 194 208
-6.936796 30.627340 744.996521 76 48 52
-5.457909 27.624847 744.415894 78 50 56
-3.982340 25.615133 744.034424 82 53 60
-2.496047 25.590685 744.051392 87 57 66
-1.030896 23.581142 743.669800 90 58 71
0.451897 23.556751 743.686768 90 58 68
1.906630 21.547380 743.305054 91 59 62
3.386007 21.523045 743.321960 91 60 57
4.830294 19.513845 742.940125 91 61 55
6.267635 17.504755 742.558167 90 61 52
7.677098 14.503409 741.976746 90 61 50
9.144264 14.479275 741.993530 91 62 54
10.513638 10.485868 741.212402 92 62 60
11.921462 8.477263 740.830139 92 62 63
13.378210 8.453300 740.846802 94 62 64
14.775672 6.444871 740.464417 94 62 62
16.166134 4.436558 740.081970 93 62 60
17.615992 4.412708 740.098572 94 63 58
18.996037 2.404566 739.715942 96 67 60
20.369133 0.396538 739.333313 96 68 64
21.696989 -2.603471 738.750916 95 67 71
23.094551 -3.619175 738.567688 94 67 72
24.530519 -3.642797 738.584167 95 67 68
25.879307 -5.650424 738.201172 97 69 70
27.221151 -7.657944 737.818176 100 74 80
28.603140 -8.673397 737.634827 106 79 86
29.981600 -9.688798 737.451416 117 86 94
31.407150 -9.712249 737.467712 120 84 92
32.832649 -9.735698 737.484009 120 80 88
34.258141 -9.759147 737.500366 137 95 106
35.683689 -9.782597 737.516663 146 105 119
37.338993 -5.838934 738.332397 149 111 121
38.830677 -4.870758 738.548645 148 111 110
40.264858 -4.894350 738.565063 150 114 116
41.824356 -2.934562 738.981323 81 42 65
43.390850 -0.974890 739.397644 42 5 36
44.898106 -0.006959 739.614075 33 4 30
46.408890 0.960909 739.830566 79 56 86
48.271122 6.886598 741.047058 83 64 107
50.011509 10.828855 741.863770 87 68 118
51.473522 10.804805 741.880493 121 97 151
53.010296 11.772245 742.097290 146 118 170
54.627148 13.731090 742.514160 166 134 180
56.094315 13.706955 742.531006 185 152 191
57.641506 14.674224 742.747864 202 168 201
59.110462 14.650060 742.764709 220 187 212
60.746361 16.608591 743.181824 226 195 210
62.389256 18.567011 743.598999 225 196 207
64.039047 20.525312 744.016296 224 194 209
65.695778 22.483500 744.433655 224 191 208
-12.911820 37.205334 744.711304 64 40 33
-11.403318 35.193874 744.333435 66 41 39
-9.901944 32.189201 743.757874 67 42 43
-8.405232 32.164581 743.775024 69 44 46
-6.915859 30.153433 743.396973 72 46 48
-5.433402 28.142397 743.018799 75 49 52
-3.957891 26.131474 742.640564 80 53 58
-2.471597 26.107025 742.657593 84 56 63
-1.006503 24.096275 742.279236 87 57 67
0.476289 24.071882 742.296204 86 56 65
1.930965 22.061310 741.917725 89 57 64
3.394533 21.043909 741.736877 90 60 63
4.854571 20.026567 741.556030 90 61 59
6.291856 18.016273 741.177368 88 59 53
7.701233 15.013115 740.600830 87 59 50
9.122890 13.003079 740.221924 88 60 52
10.513168 10.000239 739.645142 90 60 58
11.945426 8.983355 739.463989 91 61 60
13.346249 6.973661 739.084900 92 62 61
14.799580 6.949754 739.101501 91 61 58
16.189983 4.940232 738.722290 90 59 56
17.606670 3.923609 738.540955 92 62 57
18.984919 1.914281 738.161621 95 65 59
20.392868 0.897796 737.980164 95 66 62
21.720640 -2.104015 737.402649 95 66 65
23.118172 -3.120329 737.221069 96 66 67
24.554140 -3.143950 737.237549 98 66 63
25.902870 -5.152787 736.857849 100 69 67
27.289986 -6.168930 736.676147 101 72 79
28.673681 -7.185016 736.494446 106 76 86
30.005051 -9.193562 736.114563 118 85 94
31.430601 -9.217011 736.130859 120 85 92
32.803825 -10.232925 735.949036 120 81 89
34.227581 -10.256346 735.965332 137 97 107
35.707138 -9.287359 736.179810 145 106 120
37.247597 -7.326056 736.592590 148 113 121
38.795055 -5.364861 737.005432 150 117 112
40.227497 -5.388424 737.021851 147 113 109
41.785313 -3.427400 737.434814 64 26 38
43.350136 -1.466492 737.847839 33 0 17
44.921844 0.494299 738.260986 32 2 21
46.432655 1.462771 738.475830 56 32 55
48.434330 9.376443 740.079224 61 44 74
50.106934 12.328898 740.691101 74 57 94
51.643787 13.296943 740.906250 103 80 123
53.109215 13.272837 740.923035 102 73 117
54.651283 14.240795 741.138245 104 72 114
56.196770 15.208696 741.353516 129 96 135
57.665668 15.184533 741.370300 165 133 168
59.134628 15.160370 741.387146 198 168 196
60.854107 18.112059 741.999512 220 194 210
62.413536 19.079731 742.214966 222 196 209
64.063377 21.039242 742.628967 220 193 209
65.720169 22.998632 743.043030 219 189 206
67.745842 28.925261 744.251648 218 184 201
69.331261 29.892506 744.467346 219 182 199
71.014153 31.851471 744.881714 222 180 198
72.512573 31.826822 744.898865 221 180 195
74.108406 32.793896 745.114746 220 181 193
-18.969845 43.791927 744.405579 61 36 22
-17.437092 41.778858 744.031250 60 35 20
-15.911283 39.765900 743.656799 59 36 20
-14.402447 39.741081 743.674072 60 36 23
-12.883795 36.734318 743.103638 60 36 30
-11.378613 35.715626 742.924988 62 37 35
-9.877324 32.709148 742.354309 61 36 38
-8.380611 32.684528 742.371460 62 37 40
-6.891296 30.672169 741.996643 64 39 42
-5.408896 28.659929 741.621765 69 43 47
-3.926286 27.641617 741.442749 75 48 53
-2.447148 26.623356 741.263794 80 53 59
-0.982112 24.611403 740.888672 84 55 64
0.500681 24.587009 740.905640 83 55 64
1.955300 22.575222 740.530396 87 58 66
3.403001 20.563549 740.155151 90 61 66
4.861275 19.545637 739.975891 91 62 62
6.277456 16.540558 739.404236 88 61 56
7.704321 14.529226 739.028748 86 59 51
9.146968 13.511565 738.849304 88 60 52
10.512641 9.513392 738.081177 90 61 60
11.943134 8.495932 737.901611 91 62 62
13.370154 7.478528 737.722046 91 61 60
14.823485 7.454621 737.738647 91 61 58
16.213833 5.443891 737.362732 89 58 55
17.597288 3.433279 736.986694 92 62 57
18.973745 1.422783 736.610535 95 65 60
20.379932 0.405722 736.430725 96 67 61
21.705879 -2.597878 735.858093 97 67 64
23.141792 -2.621499 735.874512 98 68 65
24.577761 -2.645120 735.890991 103 70 65
25.926434 -4.655159 735.514526 106 72 71
27.268166 -6.665085 735.138000 106 74 83
28.650097 -7.681747 734.957886 108 77 88
30.028500 -8.698345 734.777710 118 86 94
31.454050 -8.721796 734.794067 118 84 91
32.774944 -10.731383 734.417297 118 81 89
34.196964 -10.754775 734.433594 135 98 107
35.730587 -8.792144 734.843018 144 109 122
37.213596 -7.822615 735.055908 146 112 120
38.700130 -6.853138 735.268860 150 118 110
40.190075 -5.883718 735.481873 144 111 103
41.683495 -4.914361 735.694885 54 17 23
43.244904 -2.952192 736.104675 31 0 8
48.667309 12.861463 739.301697 68 52 69
50.273808 14.822895 739.711975 76 62 83
51.741028 14.798759 739.728760 79 58 87
53.208195 14.774625 739.745544 73 47 80
54.752029 15.743159 739.959167 84 53 87
56.299274 16.711637 740.172791 100 68 102
57.689831 15.694833 739.992798 131 101 132
59.240608 16.663252 740.206482 167 139 167
60.878357 18.624165 740.617126 183 157 179
62.523106 20.584963 741.027832 194 169 189
64.087715 21.553156 741.241638 206 179 203
65.922089 25.498693 742.046387 215 186 209
67.679909 28.451561 742.654358 217 184 204
69.355850 30.411846 743.065430 218 181 199
70.944824 31.379637 743.279541 219 179 198
72.441513 31.355017 743.296692 217 177 193
73.938187 31.330397 743.313782 218 180 192
-25.162241 53.371586 744.661621 67 37 29
-23.600029 51.356823 744.290894 64 36 28
-22.044788 49.342175 743.920105 64 36 28
-20.484550 46.332912 743.355042 62 35 25
-18.944910 44.318523 742.984009 60 34 21
-17.412214 42.304249 742.612976 59 34 18
-15.886462 40.290085 742.241821 57 33 18
-14.367687 38.276039 741.870605 54 31 19
-12.855826 36.262108 741.499268 53 29 23
-11.352409 35.242840 741.322205 53 29 29
-9.852704 33.229107 740.950745 51 27 31
-8.359942 31.215488 740.579224 51 26 33
-6.866732 31.190926 740.596313 53 28 35
-5.378942 30.171919 740.419006 58 32 39
-3.894623 29.152973 740.241699 64 38 46
-2.422699 27.139696 739.869934 70 43 52
-0.957719 25.126534 739.498108 75 48 58
0.512680 24.107819 739.320618 78 50 60
1.965505 22.094851 738.948608 83 55 62
3.411413 20.082003 738.576538 87 60 64
4.850319 18.069269 738.204407 90 63 63
6.282281 16.056650 737.832214 89 62 58
7.707353 14.044146 737.459900 87 60 54
9.171046 14.020068 737.476624 88 62 56
10.536605 10.019479 736.715027 90 62 62
11.940784 8.007312 736.342529 91 62 63
13.394061 7.983406 736.359131 91 62 61
14.787879 5.971419 735.986450 92 63 60
16.237682 5.947570 736.003052 90 60 56
17.621082 3.935751 735.630249 92 62 57
18.997480 1.924046 735.257385 95 65 60
20.366936 -0.087550 734.884460 97 67 61
21.729500 -2.099027 734.511475 99 69 64
23.165413 -2.122648 734.527893 101 69 65
24.517559 -4.133948 734.154724 104 69 67
25.906353 -5.151328 733.976318 107 72 75
27.291672 -6.168645 733.797913 106 73 85
28.626455 -8.179670 733.424561 106 75 89
30.051949 -8.203119 733.440857 118 86 94
31.376314 -10.213968 733.067444 118 85 91
32.798340 -10.237360 733.083679 118 82 92
34.166298 -11.254392 732.905029 135 100 112
35.754040 -8.296918 733.506165 147 113 127
37.179539 -8.320367 733.522461 148 115 124
38.664360 -7.350263 733.733765 150 119 112
40.152603 -6.380205 733.945129 141 108 100
41.644318 -5.410214 734.156494 52 15 17
43.010590 -6.427218 733.977844 31 0 4
50.369370 16.325960 738.531189 80 70 71
51.765163 15.308465 738.352844 73 56 67
53.307232 16.277634 738.564819 73 51 69
54.929466 18.240011 738.971985 83 56 76
56.401840 18.215790 738.988831 86 56 78
57.874214 18.191570 739.005676 96 65 90
59.264801 17.174160 738.827332 123 92 121
60.902603 19.136282 739.234680 140 111 142
62.547409 21.098289 739.642151 151 124 157
64.112045 22.067080 739.854370 176 148 184
65.857742 25.021965 740.457214 198 169 201
67.523384 26.983624 740.864929 210 178 203
69.288177 29.938190 741.468079 216 180 201
70.781448 29.913628 741.485168 219 178 201
72.370399 30.882023 741.697632 218 177 195
73.865341 30.857431 741.714783 217 179 189
75.360344 30.832840 741.731873 211 181 196
-32.974651 60.998470 744.484558 68 42 6
-31.407017 59.977543 744.309814 71 42 11
-29.798277 56.965675 743.750183 71 42 17
-28.241062 55.944923 743.575317 72 42 25
-26.706150 55.919674 743.592896 71 41 29
-25.137051 53.903591 743.225525 68 40 29
-23.574894 51.887627 742.858032 66 38 30
-22.006088 48.876415 742.297974 62 35 28
-20.459558 46.860703 741.930298 58 32 24
-18.919977 44.845104 741.562561 54 29 18
-17.378925 41.834347 741.002136 51 27 15
-15.861643 40.814255 740.826843 47 25 12
-14.337982 37.803783 740.266235 42 21 10
-12.831120 36.783863 740.090820 40 18 13
-11.324795 33.773678 739.530029 39 17 17
-9.828351 32.753925 739.354492 38 15 21
-8.335380 31.734226 739.178894 37 14 22
-6.842169 31.709663 739.195984 39 15 24
-5.359884 29.695011 738.827576 44 19 28
-3.877331 28.675486 738.651917 50 23 34
-2.398250 27.656027 738.476135 55 28 40
-0.933328 25.641651 738.107544 62 34 48
0.524621 23.627401 737.738892 67 38 51
1.989811 22.608160 737.562988 76 48 58
3.419767 19.599232 737.001282 82 55 60
4.839249 16.590475 736.439514 88 60 62
6.306415 16.566339 736.456299 88 62 59
7.731431 14.552632 736.087219 87 61 57
9.149444 12.539034 735.718140 88 61 58
10.535991 9.530819 735.155945 90 62 64
11.964690 8.512183 734.979614 90 61 64
13.417967 8.488277 734.996277 92 62 64
14.811728 6.475078 734.626831 93 64 63
16.230009 5.456614 734.450439 92 62 59
17.644873 4.438200 734.273926 92 61 58
19.021215 2.425293 733.904297 94 63 59
20.390614 0.412494 733.534668 94 64 60
21.753120 -1.600191 733.164856 98 67 64
23.148830 -2.618284 732.988159 100 68 66
24.499182 -4.630770 732.618286 104 69 70
25.842535 -6.643135 732.248291 107 72 79
