ply
format ascii 1.0
element vertex 1168
property float32 x
property float32 y
property float32 z
property uchar red
property uchar green
property uchar blue
end_header
46.531574 80.877335 697.234314 98 67 52
45.881844 80.913506 695.983276 94 63 45
46.252026 80.831100 694.529907 87 56 38
46.623840 80.748596 693.079651 80 51 31
46.997227 80.666000 691.632385 76 48 28
47.372234 80.583328 690.188293 73 48 26
46.725708 80.619316 688.943420 71 48 26
47.103096 80.536507 687.503906 69 48 27
47.482101 80.453606 686.067505 66 47 27
47.862690 80.370621 684.634155 54 37 18
48.244900 80.287544 683.203918 43 27 12
48.628716 80.204369 681.776794 29 15 6
47.986160 80.240135 680.539612 20 7 5
48.372375 80.156837 679.117065 14 4 5
48.760166 80.073448 677.697571 10 2 5
49.149578 79.989960 676.281189 7 1 4
48.509449 80.025597 675.048645 5 1 3
48.901237 79.941986 673.636841 5 2 2
49.294655 79.858284 672.228210 6 2 3
48.656105 79.893829 670.998718 7 1 5
49.051926 79.809998 669.594666 8 1 6
48.414188 79.845490 668.366760 12 2 9
47.776451 79.880989 667.138794 18 7 14
48.175453 79.796982 665.740906 31 18 25
48.576042 79.712875 664.346069 46 31 33
48.978260 79.628685 662.954346 57 41 35
48.342945 79.664047 661.731079 65 47 40
47.707584 79.699409 660.507690 67 47 47
47.072266 79.734779 659.284424 90 69 70
46.436920 79.770142 658.061096 126 104 100
44.759239 79.925339 656.996948 130 106 105
-42.152359 61.519669 656.000000 63 29 34
-41.013126 61.519669 656.000000 64 31 40
-39.813084 61.425884 655.000000 69 36 47
-38.675560 61.425884 655.000000 98 66 78
-37.538040 61.425884 655.000000 136 104 113
-36.456093 61.519669 656.000000 166 132 134
-35.316856 61.519669 656.000000 169 131 119
-34.177601 61.519669 656.000000 176 127 97
-33.038342 61.519669 656.000000 177 123 78
-31.899086 61.519669 656.000000 175 119 64
-30.759827 61.519669 656.000000 173 119 59
-29.620590 61.519669 656.000000 164 114 54
-28.481333 61.519669 656.000000 160 114 54
-27.342075 61.519669 656.000000 158 111 50
-26.202818 61.519669 656.000000 158 112 50
-25.063559 61.519669 656.000000 162 115 53
-23.924324 61.519669 656.000000 163 117 59
-22.785067 61.519669 656.000000 158 113 65
-21.612812 61.425884 655.000000 153 109 74
-20.444031 61.332111 654.000000 155 111 93
-19.308245 61.332111 654.000000 159 119 115
-18.200270 61.425884 655.000000 174 140 149
-17.062750 61.425884 655.000000 176 143 159
-15.925229 61.425884 655.000000 183 144 162
-14.787708 61.425884 655.000000 186 142 158
-13.650187 61.425884 655.000000 186 137 146
-12.512688 61.425884 655.000000 178 128 129
-11.375167 61.425884 655.000000 156 109 102
-10.237645 61.425884 655.000000 140 94 86
-9.100124 61.425884 655.000000 104 57 56
-7.962603 61.425884 655.000000 115 69 77
-6.825104 61.425884 655.000000 124 81 102
-5.687583 61.425884 655.000000 111 71 100
-4.557009 61.519669 656.000000 67 31 62
-3.417751 61.519669 656.000000 115 85 119
-2.275020 61.425884 655.000000 148 123 164
-1.137521 61.425884 655.000000 163 138 170
0.000000 61.425884 655.000000 197 166 176
1.135806 61.332111 654.000000 188 153 149
2.271569 61.332111 654.000000 159 123 115
3.407331 61.332111 654.000000 94 59 47
4.543138 61.332111 654.000000 51 19 8
5.678900 61.332111 654.000000 56 30 22
6.814706 61.332111 654.000000 115 94 97
7.950469 61.332111 654.000000 117 96 105
9.100124 61.425884 655.000000 116 89 103
10.237667 61.425884 655.000000 96 65 70
11.375167 61.425884 655.000000 91 56 43
12.512710 61.425884 655.000000 84 46 34
13.650208 61.425884 655.000000 48 6 14
14.810285 61.519669 656.000000 44 3 19
15.949564 61.519669 656.000000 63 23 42
17.088800 61.519669 656.000000 92 53 70
18.228081 61.519669 656.000000 120 81 93
19.367313 61.519669 656.000000 110 73 84
20.475290 61.425884 655.000000 83 46 61
21.612833 61.425884 655.000000 96 61 71
22.750334 61.425884 655.000000 108 74 70
23.887875 61.425884 655.000000 92 60 52
25.025375 61.425884 655.000000 59 27 24
26.162874 61.425884 655.000000 53 23 26
27.300417 61.425884 655.000000 50 23 33
28.437916 61.425884 655.000000 52 28 44
29.620613 61.519669 656.000000 47 24 48
30.759848 61.519669 656.000000 71 48 75
31.899086 61.519669 656.000000 87 61 87
32.987999 61.425884 655.000000 95 65 86
34.125500 61.425884 655.000000 97 60 76
35.263042 61.425884 655.000000 91 54 64
36.400539 61.425884 655.000000 78 44 51
37.538040 61.425884 655.000000 73 42 51
38.675583 61.425884 655.000000 75 43 62
39.813084 61.425884 655.000000 74 42 67
40.950626 61.425884 655.000000 83 52 78
42.088123 61.425884 655.000000 87 56 86
43.225624 61.425884 655.000000 58 26 62
44.363167 61.425884 655.000000 44 12 48
45.500668 61.425884 655.000000 40 8 40
46.709412 61.519669 656.000000 58 27 55
47.848648 61.519669 656.000000 78 46 73
48.987885 61.519669 656.000000 91 59 91
50.127159 61.519669 656.000000 102 68 110
51.266399 61.519669 656.000000 115 81 129
52.405678 61.519669 656.000000 137 103 155
53.463291 61.425884 655.000000 155 124 173
54.600792 61.425884 655.000000 158 133 175
55.738331 61.425884 655.000000 154 134 173
56.788998 61.332111 654.000000 148 127 171
57.924809 61.332111 654.000000 160 138 186
59.060570 61.332111 654.000000 183 160 209
60.196331 61.332111 654.000000 185 159 205
61.332138 61.332111 654.000000 186 156 192
62.467899 61.332111 654.000000 185 151 176
63.603706 61.332111 654.000000 190 151 167
64.739471 61.332111 654.000000 190 147 156
65.975960 61.425884 655.000000 189 143 148
67.011040 61.332111 654.000000 184 136 136
68.146797 61.332111 654.000000 171 122 118
69.176666 61.238327 653.000000 145 96 86
70.310692 61.238327 653.000000 118 70 52
71.554131 61.332111 654.000000 98 52 33
72.578789 61.238327 653.000000 92 47 34
39.489292 81.539612 744.376526 121 91 97
39.810711 81.461655 742.829224 122 91 97
40.133755 81.383606 741.285034 122 91 97
40.458397 81.305466 739.743896 122 92 99
40.784618 81.227249 738.205750 118 89 96
41.112465 81.148933 736.670837 104 77 82
41.441879 81.070526 735.138855 83 59 61
41.772934 80.992043 733.610046 56 34 33
42.105576 80.913460 732.084351 33 13 13
42.439800 80.834793 730.561646 21 5 8
42.775646 80.756027 729.042114 16 2 6
44.114647 80.561363 727.287842 15 1 5
44.454494 80.482384 725.776001 14 1 4
44.795940 80.403313 724.267212 24 10 14
45.138966 80.324150 722.761475 54 40 42
45.483616 80.244896 721.258850 101 84 84
45.829838 80.165558 719.759277 118 98 97
46.177689 80.086136 718.262817 117 93 94
46.527134 80.006622 716.769409 118 91 93
45.870182 80.043190 715.504517 119 90 91
46.222031 79.963539 714.015747 120 89 92
45.565872 80.000069 712.752319 121 89 95
45.920128 79.920273 711.268188 121 89 98
46.275974 79.840408 709.787170 121 89 99
46.633408 79.760445 708.309143 121 89 98
48.005234 79.563950 706.618103 122 90 97
47.353085 79.600258 705.362427 121 89 95
46.700951 79.636551 704.106750 119 88 92
47.064007 79.556282 702.639587 116 85 88
47.428635 79.475914 701.175476 112 82 82
47.794891 79.395462 699.714417 107 78 74
47.145130 79.431633 698.463379 103 74 66
47.513790 79.351044 697.006958 99 70 58
47.884045 79.270370 695.553650 94 64 50
48.255867 79.189613 694.103394 88 59 43
48.629330 79.108765 692.656250 82 54 36
47.982777 79.144753 691.411316 78 51 32
48.358627 79.063759 689.968811 75 50 29
48.736080 78.982689 688.529358 72 50 28
49.115116 78.901527 687.092957 68 47 26
48.470989 78.937378 685.852661 64 44 24
48.852421 78.856079 684.420898 59 41 22
49.235474 78.774696 682.992249 48 31 17
49.620132 78.693214 681.566650 35 18 10
50.006359 78.611649 680.144104 23 8 5
50.394218 78.529999 678.724670 16 3 3
49.754070 78.565628 677.492126 12 1 2
51.174713 78.366417 675.895020 10 1 2
50.536186 78.401962 674.665588 9 1 2
50.929630 78.319992 673.256958 10 1 3
51.324680 78.237938 671.851379 10 1 4
51.721313 78.155792 670.448853 11 1 6
52.119572 78.073570 669.049438 12 1 8
51.484253 78.108932 667.826172 12 0 8
50.848892 78.144302 666.602783 14 1 10
51.250355 78.061890 665.209595 25 10 21
50.615810 78.097206 663.987793 39 23 30
51.019680 78.014656 662.599182 54 36 36
50.385948 78.049934 661.378967 64 45 43
50.792179 77.967262 659.994934 72 53 53
50.159267 78.002495 658.776306 96 75 75
48.484718 78.155762 657.718201 120 98 96
45.766220 78.427223 656.816284 126 101 106
-40.950603 60.288372 655.000000 65 32 38
-39.813084 60.288372 655.000000 65 32 40
-38.675560 60.288372 655.000000 77 45 55
-37.538040 60.288372 655.000000 99 69 77
-36.456093 60.380413 656.000000 126 100 104
-35.316856 60.380413 656.000000 138 110 103
-34.177601 60.380413 656.000000 157 121 95
-33.038342 60.380413 656.000000 166 124 84
-31.899086 60.380413 656.000000 168 122 71
-30.759827 60.380413 656.000000 168 119 63
-29.620590 60.380413 656.000000 160 111 56
-28.481333 60.380413 656.000000 158 109 54
-27.342075 60.380413 656.000000 156 109 52
-26.202818 60.380413 656.000000 154 107 49
-25.063559 60.380413 656.000000 154 110 50
-23.924324 60.380413 656.000000 156 112 58
-22.785067 60.380413 656.000000 152 110 67
-21.645809 60.380413 656.000000 148 106 77
-20.475290 60.288372 655.000000 152 110 97
-19.337770 60.288372 655.000000 159 120 120
-18.200270 60.288372 655.000000 173 140 152
-17.062750 60.288372 655.000000 174 141 160
-15.925229 60.288372 655.000000 177 139 161
-14.787708 60.288372 655.000000 182 139 160
-13.650187 60.288372 655.000000 190 141 156
-12.512688 60.288372 655.000000 192 143 149
-11.375167 60.288372 655.000000 181 133 132
-10.237645 60.288372 655.000000 168 122 114
-9.100124 60.288372 655.000000 166 119 110
-7.962603 60.288372 655.000000 164 118 113
-6.825104 60.288372 655.000000 114 70 77
-5.687583 60.288372 655.000000 83 43 59
-4.557009 60.380413 656.000000 100 64 89
-3.417751 60.380413 656.000000 118 87 120
-2.275020 60.288372 655.000000 119 94 136
-1.137521 60.288372 655.000000 126 102 139
0.000000 60.288372 655.000000 179 152 170
1.137543 60.288372 655.000000 188 158 162
2.271569 60.196327 654.000000 153 119 114
3.407331 60.196327 654.000000 117 82 70
4.543138 60.196327 654.000000 96 65 51
5.670217 60.104286 653.000000 89 61 53
6.804286 60.104286 653.000000 108 85 92
7.950469 60.196327 654.000000 118 93 110
9.086231 60.196327 654.000000 87 54 77
10.222037 60.196327 654.000000 60 23 37
11.357800 60.196327 654.000000 104 67 58
12.512710 60.288372 655.000000 113 75 62
13.650208 60.288372 655.000000 85 42 45
14.810285 60.380413 656.000000 67 23 32
15.949564 60.380413 656.000000 97 55 60
17.088800 60.380413 656.000000 122 81 82
18.228081 60.380413 656.000000 105 64 62
19.367313 60.380413 656.000000 98 58 56
20.475290 60.288372 655.000000 104 67 70
21.612833 60.288372 655.000000 111 75 76
22.750334 60.288372 655.000000 100 66 57
23.851406 60.196327 654.000000 89 55 44
24.987169 60.196327 654.000000 83 47 42
26.122931 60.196327 654.000000 75 40 42
27.300417 60.288372 655.000000 55 23 33
28.437916 60.288372 655.000000 52 23 40
29.620613 60.380413 656.000000 63 36 57
30.759848 60.380413 656.000000 73 47 68
31.899086 60.380413 656.000000 96 69 87
33.038364 60.380413 656.000000 116 84 99
34.125500 60.288372 655.000000 94 54 66
35.263042 60.288372 655.000000 89 47 55
36.400539 60.288372 655.000000 84 46 49
37.538040 60.288372 655.000000 98 62 67
38.616539 60.196327 654.000000 80 43 58
39.752300 60.196327 654.000000 73 37 57
40.950626 60.288372 655.000000 106 71 91
42.088123 60.288372 655.000000 122 87 110
43.225624 60.288372 655.000000 72 35 66
44.363167 60.288372 655.000000 44 7 37
45.500668 60.288372 655.000000 47 10 35
46.709412 60.380413 656.000000 54 17 39
47.848648 60.380413 656.000000 53 15 38
48.987885 60.380413 656.000000 54 16 45
50.127159 60.380413 656.000000 62 22 62
51.266399 60.380413 656.000000 65 25 74
52.405678 60.380413 656.000000 76 35 92
53.463291 60.288372 655.000000 85 50 105
54.600792 60.288372 655.000000 80 57 103
55.738331 60.288372 655.000000 74 57 102
56.875832 60.288372 655.000000 70 54 107
58.013374 60.288372 655.000000 80 63 122
59.150875 60.288372 655.000000 102 83 145
60.196331 60.196327 654.000000 129 108 164
61.332138 60.196327 654.000000 145 119 163
62.467899 60.196327 654.000000 173 143 175
63.603706 60.196327 654.000000 189 153 176
64.739471 60.196327 654.000000 189 149 166
65.975960 60.288372 655.000000 187 143 158
67.011040 60.196327 654.000000 184 137 149
68.146797 60.196327 654.000000 177 128 136
69.176666 60.104286 653.000000 163 114 113
70.310692 60.104286 653.000000 142 94 81
71.444717 60.104286 653.000000 121 73 57
72.578789 60.104286 653.000000 100 51 41
73.599930 60.012241 652.000000 90 42 36
41.437519 79.854286 743.844543 118 88 95
40.766964 79.891617 742.553406 119 89 94
41.090855 79.815262 741.010803 117 88 93
41.416336 79.738808 739.471191 118 90 97
41.743412 79.662277 737.934692 109 82 89
42.072098 79.585663 736.401306 77 53 60
42.402363 79.508949 734.870911 45 23 29
42.734257 79.432144 733.343689 32 12 15
43.067738 79.355247 731.819519 21 4 7
43.402813 79.278282 730.298401 16 1 7
44.740322 79.087173 728.541138 14 1 7
45.079384 79.009964 727.027710 14 1 6
45.420086 78.932678 725.517456 14 2 5
45.762375 78.855301 724.010254 41 26 28
46.106239 78.777832 722.506042 78 61 62
46.451736 78.700272 721.005005 110 90 91
46.798798 78.622627 719.507019 116 94 95
47.147499 78.544891 718.012146 117 91 95
47.497799 78.467072 716.520325 119 90 94
47.849655 78.389153 715.031555 120 89 94
48.203159 78.311150 713.545898 120 89 94
47.548607 78.347588 712.285583 120 89 96
47.904499 78.269447 710.804565 120 90 97
48.261990 78.191231 709.326599 119 89 97
48.621067 78.112907 707.851746 119 89 97
48.981766 78.034500 706.379944 121 91 97
48.330402 78.070755 705.125793 120 90 96
47.679077 78.107010 703.871704 118 89 93
48.042976 78.028427 702.406067 115 88 90
48.408455 77.949760 700.943542 112 86 85
48.775547 77.871002 699.484070 108 83 78
49.144222 77.792152 698.027649 104 78 69
49.514515 77.713211 696.574341 99 74 62
49.886417 77.634186 695.124146 95 69 55
49.239864 77.670174 693.879211 90 64 49
49.614162 77.591019 692.433655 82 56 42
49.990040 77.511765 690.991089 74 49 34
49.345116 77.547661 689.749329 66 43 28
49.723415 77.468277 688.311462 58 37 22
50.103283 77.388809 686.876587 50 30 16
50.484791 77.309250 685.444885 43 24 12
49.842239 77.345016 684.207703 38 20 10
50.226139 77.265312 682.780579 33 16 7
50.611633 77.185532 681.356567 26 9 4
50.998722 77.105652 679.935608 20 4 2
51.387421 77.025688 678.517761 17 1 2
51.777699 76.945641 677.102905 16 1 2
52.169601 76.865494 675.691223 15 2 3
52.563103 76.785271 674.282654 16 2 4
52.958183 76.704948 672.877075 16 2 5
54.387714 76.508720 671.296997 16 3 6
53.753170 76.544044 670.075195 17 3 7
54.153076 76.463455 668.678955 17 3 9
53.519348 76.498734 667.458740 19 5 11
53.921627 76.418015 666.067017 24 8 16
53.288700 76.453247 664.848328 33 17 26
53.693386 76.372398 663.461243 44 27 35
53.061260 76.407585 662.244141 58 39 43
53.468365 76.326591 660.861694 62 44 44
52.837009 76.361732 659.646057 79 59 58
52.205685 76.396873 658.430481 99 77 76
50.532711 76.548332 657.375488 119 95 96
-41.013126 59.241165 656.000000 67 34 33
-39.813084 59.150856 655.000000 65 32 33
-38.675560 59.150856 655.000000 63 31 34
-37.538040 59.150856 655.000000 68 38 42
-36.456093 59.241165 656.000000 74 49 53
-35.316856 59.241165 656.000000 105 80 79
-34.177601 59.241165 656.000000 139 110 97
-33.038342 59.241165 656.000000 158 124 98
-31.899086 59.241165 656.000000 159 118 79
-30.759827 59.241165 656.000000 157 111 64
-29.620590 59.241165 656.000000 157 107 58
-28.481333 59.241165 656.000000 155 104 53
-27.342075 59.241165 656.000000 154 105 50
-26.202818 59.241165 656.000000 148 102 44
-25.063559 59.241165 656.000000 145 102 42
-23.924324 59.241165 656.000000 147 105 51
-22.785067 59.241165 656.000000 147 106 68
-21.612812 59.150856 655.000000 147 106 83
-20.475290 59.150856 655.000000 152 112 104
-19.337770 59.150856 655.000000 161 122 126
-18.200270 59.150856 655.000000 172 134 150
-17.062750 59.150856 655.000000 175 138 159
-15.925229 59.150856 655.000000 177 138 160
-14.787708 59.150856 655.000000 178 138 159
-13.650187 59.150856 655.000000 180 137 158
-12.512688 59.150856 655.000000 185 139 156
-11.375167 59.150856 655.000000 190 140 150
-10.237645 59.150856 655.000000 189 138 140
-9.100124 59.150856 655.000000 186 138 131
-7.962603 59.150856 655.000000 170 125 113
-6.825104 59.150856 655.000000 81 38 29
-5.687583 59.150856 655.000000 101 62 60
-4.550062 59.150856 655.000000 126 93 106
-3.417751 59.241165 656.000000 114 84 110
-2.278494 59.241165 656.000000 61 33 69
-1.139258 59.241165 656.000000 99 73 108
0.000000 59.241165 656.000000 166 142 167
1.137543 59.150856 655.000000 156 132 143
2.275042 59.150856 655.000000 129 99 95
3.412541 59.150856 655.000000 114 82 71
4.543138 59.060551 654.000000 101 69 62
5.670217 58.970249 653.000000 106 73 75
6.804286 58.970249 653.000000 112 74 89
7.950469 59.060551 654.000000 88 46 70
9.086231 59.060551 654.000000 70 24 53
10.222037 59.060551 654.000000 73 28 48
11.375167 59.150856 655.000000 127 85 86
12.512710 59.150856 655.000000 145 107 95
13.650208 59.150856 655.000000 155 119 104
14.810285 59.241165 656.000000 140 104 85
15.949564 59.241165 656.000000 125 89 66
17.088800 59.241165 656.000000 123 85 62
18.228081 59.241165 656.000000 85 43 25
19.337791 59.150856 655.000000 113 70 52
20.475290 59.150856 655.000000 128 87 69
21.612833 59.150856 655.000000 107 68 51
22.715599 59.060551 654.000000 75 36 22
23.851406 59.060551 654.000000 94 55 44
24.987169 59.060551 654.000000 100 60 53
26.122931 59.060551 654.000000 86 46 46
27.258736 59.060551 654.000000 59 20 32
28.437916 59.150856 655.000000 54 18 32
29.575459 59.150856 655.000000 100 70 78
30.759848 59.241165 656.000000 104 76 81
31.899086 59.241165 656.000000 99 66 73
32.987999 59.150856 655.000000 90 53 61
34.125500 59.150856 655.000000 90 47 53
35.263042 59.150856 655.000000 94 46 52
36.400539 59.150856 655.000000 98 50 53
37.480728 59.060551 654.000000 88 40 46
38.616539 59.060551 654.000000 87 40 54
39.752300 59.060551 654.000000 110 64 81
40.888107 59.060551 654.000000 136 91 105
42.088123 59.150856 655.000000 117 74 87
43.225624 59.150856 655.000000 94 51 66
44.363167 59.150856 655.000000 94 52 64
45.500668 59.150856 655.000000 102 60 67
46.709412 59.241165 656.000000 80 40 42
47.848648 59.241165 656.000000 59 20 21
48.987885 59.241165 656.000000 71 32 37
50.127159 59.241165 656.000000 92 53 68
51.266399 59.241165 656.000000 87 47 74
52.405678 59.241165 656.000000 61 22 60
53.463291 59.150856 655.000000 42 8 51
54.600792 59.150856 655.000000 26 3 43
55.738331 59.150856 655.000000 17 1 44
56.875832 59.150856 655.000000 13 0 51
58.013374 59.150856 655.000000 18 2 63
59.150875 59.150856 655.000000 34 15 82
60.288372 59.150856 655.000000 88 68 130
61.332138 59.060551 654.000000 114 90 139
62.467899 59.060551 654.000000 172 143 180
63.603706 59.060551 654.000000 188 153 181
64.739471 59.060551 654.000000 189 149 173
65.975960 59.150856 655.000000 186 142 165
67.011040 59.060551 654.000000 184 136 157
68.146797 59.060551 654.000000 175 126 142
69.176666 58.970249 653.000000 169 119 126
70.310692 58.970249 653.000000 154 105 100
71.444717 58.970249 653.000000 140 90 79
72.578789 58.970249 653.000000 112 58 50
73.599930 58.879936 652.000000 97 43 38
74.732269 58.879936 652.000000 99 48 46
83.893166 65.111099 721.000000 101 53 52
42.070728 78.362297 745.112976 117 86 94
42.393063 78.287766 743.567261 117 86 92
42.716976 78.213150 742.024597 117 87 91
42.048046 78.250381 740.736633 116 88 92
42.374378 78.175621 739.198608 112 84 92
42.702278 78.100784 737.663635 92 67 77
43.031818 78.025848 736.131836 48 26 36
42.365261 78.062958 734.848389 18 1 8
42.697197 77.987892 733.321167 14 0 6
44.030003 77.800522 731.554749 14 1 8
44.365902 77.725235 730.035156 12 1 10
44.703442 77.649864 728.518738 12 1 10
46.044224 77.462051 726.767700 12 0 7
46.385757 77.386444 725.258972 15 2 6
46.728893 77.310760 723.753357 58 44 43
47.073612 77.234993 722.250732 95 77 75
47.419945 77.159119 720.751282 113 92 92
47.767864 77.083160 719.254822 116 92 94
48.117397 77.007118 717.761475 118 90 95
48.468540 76.930984 716.271240 120 89 96
48.821251 76.854767 714.784058 121 89 97
49.175594 76.778458 713.299988 121 89 96
49.531509 76.702049 711.818970 120 89 95
49.889046 76.625557 710.341003 119 89 95
49.236923 76.661858 709.085388 118 90 94
49.596836 76.585236 707.612061 118 91 95
49.958378 76.508530 706.141846 120 92 99
49.307823 76.544739 704.889221 117 90 96
49.671761 76.467888 703.423645 114 89 93
49.022030 76.504059 702.172607 113 90 90
50.404427 76.313934 700.501709 113 91 87
49.756294 76.350014 699.253723 110 89 80
51.143486 76.159622 697.592041 104 84 70
50.496960 76.195610 696.347168 98 78 62
50.869701 76.118271 694.898499 93 72 55
51.244019 76.040840 693.452942 85 64 48
50.599087 76.076744 692.211121 72 50 38
50.975807 75.999184 690.770142 57 35 27
51.354153 75.921539 689.332275 44 22 18
50.710827 75.957352 688.093628 35 14 13
51.091549 75.879562 686.660339 28 8 11
51.473892 75.801689 685.230164 23 4 8
51.857819 75.723732 683.803101 20 2 4
51.216892 75.759407 682.568970 20 3 4
52.630508 75.567543 680.958191 20 3 4
53.019230 75.489326 679.540283 20 2 4
53.409576 75.411003 678.125549 19 1 4
53.801506 75.332596 676.713867 18 1 3
54.195049 75.254105 675.305298 18 0 2
54.590195 75.175522 673.899780 19 1 3
54.986919 75.096855 672.497314 21 2 4
55.385273 75.018082 671.097961 22 3 5
55.785202 74.939240 669.701721 23 4 6
55.152279 74.974464 668.483032 26 8 9
55.554619 74.895485 667.091370 34 17 17
55.958549 74.816414 665.702820 44 27 27
55.327225 74.851555 664.487183 53 36 38
55.733543 74.772346 663.103210 60 42 46
56.141506 74.693047 661.722412 63 44 48
56.551044 74.613663 660.344604 63 43 44
55.922096 74.648674 659.133606 87 67 62
54.252296 74.798210 658.084778 105 84 78
-39.813084 58.013344 655.000000 70 37 33
-38.675560 58.013344 655.000000 67 34 32
-37.595352 58.101910 656.000000 65 34 34
-36.456093 58.101910 656.000000 65 38 38
-35.316856 58.101910 656.000000 87 62 61
-34.177601 58.101910 656.000000 112 85 81
-33.038342 58.101910 656.000000 133 104 90
-31.899086 58.101910 656.000000 145 108 81
-30.759827 58.101910 656.000000 151 108 71
-29.620590 58.101910 656.000000 155 105 63
-28.481333 58.101910 656.000000 153 101 54
-27.342075 58.101910 656.000000 149 100 49
-26.162874 58.013344 655.000000 143 97 43
-25.025354 58.013344 655.000000 140 97 40
-23.887854 58.013344 655.000000 142 100 51
-22.750334 58.013344 655.000000 146 102 71
-21.612812 58.013344 655.000000 150 106 91
-20.475290 58.013344 655.000000 156 114 113
-19.337770 58.013344 655.000000 163 122 132
-18.200270 58.013344 655.000000 169 128 148
-17.062750 58.013344 655.000000 174 132 156
-15.925229 58.013344 655.000000 174 134 157
-14.787708 58.013344 655.000000 176 136 158
-13.650187 58.013344 655.000000 175 134 158
-12.512688 58.013344 655.000000 177 134 155
-11.375167 58.013344 655.000000 185 135 154
-10.237645 58.013344 655.000000 187 137 148
-9.100124 58.013344 655.000000 187 139 138
-7.962603 58.013344 655.000000 167 122 112
-6.825104 58.013344 655.000000 144 101 86
-5.687583 58.013344 655.000000 136 96 86
-4.550062 58.013344 655.000000 115 80 86
-3.417751 58.101910 656.000000 92 60 78
-2.278494 58.101910 656.000000 86 54 82
-1.139258 58.101910 656.000000 91 62 93
0.000000 58.101910 656.000000 106 81 110
1.139279 58.101910 656.000000 113 89 109
2.278515 58.101910 656.000000 98 70 75
3.412541 58.013344 655.000000 79 50 47
4.543138 57.924774 654.000000 94 63 63
5.678900 57.924774 654.000000 103 67 74
6.814706 57.924774 654.000000 99 56 73
7.950469 57.924774 654.000000 79 32 56
9.086231 57.924774 654.000000 77 29 55
10.222037 57.924774 654.000000 90 46 64
11.375167 58.013344 655.000000 143 103 108
12.512710 58.013344 655.000000 181 144 138
13.671048 58.101910 656.000000 187 152 136
14.810285 58.101910 656.000000 185 149 126
15.949564 58.101910 656.000000 154 117 90
17.088800 58.101910 656.000000 140 100 72
18.228081 58.101910 656.000000 154 110 88
19.337791 58.013344 655.000000 160 114 94
20.475290 58.013344 655.000000 140 96 74
21.579836 57.924774 654.000000 107 66 44
22.715599 57.924774 654.000000 107 65 47
23.814936 57.836201 653.000000 116 73 59
24.948961 57.836201 653.000000 101 57 47
26.082989 57.836201 653.000000 91 46 45
27.258736 57.924774 654.000000 67 22 36
28.394499 57.924774 654.000000 60 20 34
29.575459 58.013344 655.000000 84 51 55
30.712957 58.013344 655.000000 105 74 72
31.850458 58.013344 655.000000 105 71 67
32.987999 58.013344 655.000000 77 38 34
34.125500 58.013344 655.000000 93 46 43
35.263042 58.013344 655.000000 98 48 44
36.400539 58.013344 655.000000 99 48 43
37.480728 57.924774 654.000000 86 36 34
38.616539 57.924774 654.000000 115 65 71
39.752300 57.924774 654.000000 136 88 97
40.950626 58.013344 655.000000 112 65 74
42.088123 58.013344 655.000000 87 42 50
43.225624 58.013344 655.000000 109 65 72
44.363167 58.013344 655.000000 124 82 85
45.500668 58.013344 655.000000 115 74 72
46.709412 58.101910 656.000000 108 68 62
47.848648 58.101910 656.000000 103 64 54
48.987885 58.101910 656.000000 107 69 60
50.127159 58.101910 656.000000 113 75 73
51.266399 58.101910 656.000000 100 62 70
52.405678 58.101910 656.000000 68 29 52
53.544914 58.101910 656.000000 40 4 34
54.600792 58.013344 655.000000 27 1 26
55.738331 58.013344 655.000000 18 0 27
56.875832 58.013344 655.000000 17 0 38
58.013374 58.013344 655.000000 18 0 48
59.150875 58.013344 655.000000 30 7 65
60.288372 58.013344 655.000000 92 68 124
61.425915 58.013344 655.000000 129 102 148
62.467899 57.924774 654.000000 184 154 192
63.603706 57.924774 654.000000 186 151 181
64.739471 57.924774 654.000000 186 146 172
65.875229 57.924774 654.000000 184 139 164
67.011040 57.924774 654.000000 182 134 158
68.042603 57.836201 653.000000 173 124 144
69.176666 57.836201 653.000000 170 121 133
70.310692 57.836201 653.000000 158 110 111
71.444717 57.836201 653.000000 148 98 93
72.578789 57.836201 653.000000 121 64 58
73.599930 57.747635 652.000000 106 47 42
74.732269 57.747635 652.000000 102 45 46
75.748199 57.659061 651.000000 103 51 52
76.878746 57.659061 651.000000 101 54 54
87.475914 64.656090 730.000000 97 54 49
44.017620 76.687469 744.578064 117 86 94
44.341602 76.614586 743.035461 115 85 90
44.667149 76.541618 741.495911 118 89 91
43.999821 76.578766 740.210999 118 90 93
43.332493 76.615913 738.926086 98 73 80
43.661247 76.542763 737.392639 72 49 59
42.994713 76.579865 736.109253 31 11 21
43.325867 76.506577 734.580505 15 1 8
43.658646 76.433205 733.054871 13 1 8
43.993034 76.359741 731.532288 11 1 8
44.328979 76.286186 730.012756 10 1 10
45.667473 76.101990 728.257202 10 1 9
46.007435 76.028214 726.745361 10 1 7
47.351528 75.843689 725.000549 20 8 11
48.698818 75.659004 723.261963 70 56 54
49.045174 75.584869 721.762451 103 84 82
48.388245 75.621437 720.497559 114 91 92
49.742714 75.436340 718.772705 119 92 95
49.087387 75.472816 717.510925 120 90 95
49.439369 75.398376 716.022217 121 90 96
50.801044 75.212875 714.311279 122 89 96
50.148117 75.249222 713.054138 121 89 96
50.504871 75.174515 711.574646 120 89 93
50.863258 75.099716 710.098267 119 90 92
50.211933 75.135971 708.844177 119 92 93
50.572689 75.061043 707.372437 119 93 95
50.935078 74.986023 705.903809 119 92 98
51.299038 74.910912 704.438171 119 92 99
50.650116 74.947029 703.188721 118 93 97
51.016499 74.871788 701.727783 113 91 92
51.384453 74.796455 700.269836 101 81 78
51.754047 74.721031 698.815063 87 68 62
52.125210 74.645523 697.363342 78 60 51
52.498001 74.569923 695.914734 73 56 44
51.853065 74.605820 694.672913 66 49 37
52.228237 74.530090 693.228943 58 40 30
51.584110 74.565941 691.988647 46 27 21
51.961674 74.490067 690.549255 34 15 12
52.340858 74.414124 689.112976 25 7 8
52.721653 74.338074 687.679749 21 4 9
53.104012 74.261932 686.249573 18 2 11
53.488007 74.185715 684.822571 17 1 9
53.873581 74.109398 683.398560 17 1 7
53.234249 74.144989 682.167542 17 1 5
53.622242 74.068535 680.748230 17 1 5
54.011806 73.992012 679.331909 17 0 4
55.431911 73.803253 677.733521 19 0 4
55.825489 73.726501 676.324890 22 2 4
56.220673 73.649651 674.919434 27 6 5
56.617470 73.572716 673.517029 30 8 7
57.015839 73.495689 672.117676 30 7 5
56.382912 73.530922 670.898987 33 11 6
56.783676 73.453766 669.504272 36 14 9
56.151558 73.488953 668.287170 40 19 13
56.554756 73.411659 666.897095 49 29 23
56.959518 73.334274 665.510071 58 39 33
57.365910 73.256805 664.126160 62 43 41
57.773891 73.179245 662.745300 64 45 45
58.183472 73.101593 661.367554 64 43 48
58.594673 73.023849 659.992859 62 41 43
57.967327 73.058769 658.784973 95 74 67
58.380932 72.980904 657.414917 114 91 84
57.754375 73.015785 656.208496 120 93 93
58.170383 72.937775 654.843140 116 87 99
-38.734608 56.962662 656.000000 76 43 36
-37.595352 56.962662 656.000000 76 43 36
-36.456093 56.962662 656.000000 78 46 38
-35.316856 56.962662 656.000000 80 51 44
-34.177601 56.962662 656.000000 86 59 57
-33.088707 57.049492 657.000000 102 74 70
-31.947710 57.049492 657.000000 130 97 83
-30.759827 56.962662 656.000000 150 110 85
-29.620590 56.962662 656.000000 153 104 68
-28.481333 56.962662 656.000000 153 102 58
-27.342075 56.962662 656.000000 149 99 54
-26.162874 56.875824 655.000000 145 96 49
-25.025354 56.875824 655.000000 144 97 49
-23.887854 56.875824 655.000000 147 100 59
-22.750334 56.875824 655.000000 152 102 80
-21.612812 56.875824 655.000000 157 107 101
-20.444031 56.788994 654.000000 163 115 123
-19.308245 56.788994 654.000000 167 120 139
-18.200270 56.875824 655.000000 171 125 151
-17.062750 56.875824 655.000000 172 128 155
-15.925229 56.875824 655.000000 172 129 155
-14.787708 56.875824 655.000000 174 132 156
-13.650187 56.875824 655.000000 177 134 156
-12.512688 56.875824 655.000000 176 132 154
-11.375167 56.875824 655.000000 178 132 155
-10.237645 56.875824 655.000000 178 132 150
-9.100124 56.875824 655.000000 183 137 147
-7.950447 56.788994 654.000000 180 134 135
-6.814684 56.788994 654.000000 179 135 124
-5.687583 56.875824 655.000000 151 109 98
-4.550062 56.875824 655.000000 69 29 30
-3.417751 56.962662 656.000000 79 43 52
-2.278494 56.962662 656.000000 99 66 82
-1.139258 56.962662 656.000000 90 58 81
0.000000 56.962662 656.000000 48 14 45
1.141016 57.049492 657.000000 55 22 53
2.278515 56.962662 656.000000 79 48 70
3.417751 56.962662 656.000000 83 53 66
4.550084 56.875824 655.000000 85 53 61
5.678900 56.788994 654.000000 87 52 60
6.825126 56.875824 655.000000 93 54 69
7.962625 56.875824 655.000000 88 48 64
9.100124 56.875824 655.000000 93 54 67
10.237667 56.875824 655.000000 100 64 74
11.375167 56.875824 655.000000 149 117 122
12.512710 56.875824 655.000000 189 157 158
13.671048 56.962662 656.000000 181 143 142
14.810285 56.962662 656.000000 187 144 139
15.949564 56.962662 656.000000 184 140 129
17.088800 56.962662 656.000000 183 137 125
18.200293 56.875824 655.000000 187 139 128
19.337791 56.875824 655.000000 180 133 123
20.475290 56.875824 655.000000 160 115 104
21.579836 56.788994 654.000000 158 114 100
22.715599 56.788994 654.000000 164 120 100
23.814936 56.702160 653.000000 143 97 78
24.948961 56.702160 653.000000 85 36 23
26.082989 56.702160 653.000000 73 24 21
27.258736 56.788994 654.000000 77 29 42
28.394499 56.788994 654.000000 71 28 46
29.575459 56.875824 655.000000 57 21 31
30.712957 56.875824 655.000000 89 56 56
31.850458 56.875824 655.000000 124 90 77
32.987999 56.875824 655.000000 116 77 58
34.177601 56.962662 656.000000 107 60 41
35.316879 56.962662 656.000000 101 52 32
36.400539 56.875824 655.000000 102 56 35
37.538040 56.875824 655.000000 122 79 60
38.616539 56.788994 654.000000 136 92 82
39.752300 56.788994 654.000000 122 79 76
40.950626 56.875824 655.000000 82 40 45
42.088123 56.875824 655.000000 113 73 80
43.225624 56.875824 655.000000 146 108 113
44.363167 56.875824 655.000000 154 117 120
45.570133 56.962662 656.000000 150 113 115
46.709412 56.962662 656.000000 157 121 119
47.848648 56.962662 656.000000 161 126 117
48.987885 56.962662 656.000000 143 108 96
50.127159 56.962662 656.000000 117 82 69
51.266399 56.962662 656.000000 93 56 51
52.405678 56.962662 656.000000 76 37 48
53.544914 56.962662 656.000000 59 19 34
54.684151 56.962662 656.000000 40 3 11
55.738331 56.875824 655.000000 34 1 9
56.875832 56.875824 655.000000 29 0 15
58.013374 56.875824 655.000000 25 0 20
59.150875 56.875824 655.000000 42 9 45
60.288372 56.875824 655.000000 96 64 101
61.425915 56.875824 655.000000 154 121 156
62.467899 56.788994 654.000000 189 155 187
63.603706 56.788994 654.000000 186 148 176
64.739471 56.788994 654.000000 183 142 166
65.875229 56.788994 654.000000 180 135 157
67.011040 56.788994 654.000000 177 131 150
68.042603 56.702160 653.000000 170 123 140
69.176666 56.702160 653.000000 168 122 134
70.310692 56.702160 653.000000 156 113 120
71.444717 56.702160 653.000000 151 103 104
72.578789 56.702160 653.000000 131 72 68
73.599930 56.615322 652.000000 116 53 49
74.732269 56.615322 652.000000 100 39 41
75.748199 56.528492 651.000000 99 42 46
76.878746 56.528492 651.000000 98 47 49
78.009346 56.528492 651.000000 93 48 46
81.692795 58.351994 672.000000 90 50 41
46.632057 74.982445 745.328186 115 84 94
47.949009 74.802917 743.531067 117 86 95
47.283276 74.839973 742.249207 115 86 91
47.611275 74.768608 740.714294 116 88 90
46.946342 74.805618 739.433960 116 90 92
46.281406 74.842636 738.153687 82 58 65
45.616455 74.879646 736.873352 55 34 43
44.951523 74.916664 735.593018 22 5 14
44.286564 74.953674 734.312683 15 2 9
44.620186 74.881996 732.788574 11 1 6
43.956062 74.918961 731.509827 8 1 5
44.292053 74.847145 729.990356 7 2 7
46.631596 74.557587 727.995667 7 2 6
46.972393 74.485497 726.485413 16 8 12
49.319935 74.195488 724.506165 38 27 28
49.665558 74.123146 723.005188 83 68 67
50.012768 74.050697 721.507263 108 89 88
50.361591 73.978172 720.012451 115 90 93
50.712002 73.905563 718.520691 119 91 95
51.064026 73.832848 717.032043 121 90 93
51.417652 73.760056 715.546448 123 90 93
51.772861 73.687164 714.063965 123 90 94
52.129684 73.614197 712.584534 122 90 92
51.478329 73.650452 711.330383 121 91 90
51.837563 73.577339 709.855591 120 92 90
52.198391 73.504150 708.383911 119 92 91
51.548641 73.540314 707.132874 119 92 93
51.911865 73.466980 705.665771 122 94 98
52.276676 73.393570 704.201721 119 91 96
52.643108 73.320061 702.740845 113 87 92
53.011135 73.246460 701.283020 97 74 79
53.380749 73.172775 699.828186 68 46 52
53.751980 73.099007 698.376526 40 21 26
53.107033 73.134903 697.134705 29 11 15
53.480656 73.060989 695.687683 29 11 15
52.836536 73.096848 694.447449 32 15 19
52.192379 73.132698 693.207153 26 10 13
52.569210 73.058617 691.766235 20 5 8
52.947624 72.984436 690.328430 16 2 5
53.327660 72.910164 688.893738 14 2 6
53.709286 72.835815 687.462036 14 3 6
54.092499 72.761375 686.033447 13 3 6
55.502296 72.576675 684.415039 12 2 6
54.863743 72.612221 683.185547 14 1 5
54.225220 72.647766 681.956116 15 0 4
54.614052 72.573013 680.538330 15 0 5
57.060787 72.277481 678.750061 18 1 6
59.512352 71.981674 676.971069 27 6 12
58.879410 72.016907 675.752380 40 18 19
59.277039 71.941658 674.351501 50 28 23
58.644917 71.976845 673.134399 56 33 23
58.012772 72.012032 671.917236 57 33 20
57.380646 72.047218 670.700073 59 35 20
57.782265 71.971756 669.306946 60 36 21
57.150925 72.006897 668.091309 62 39 24
57.554970 71.931297 666.702820 66 44 31
57.960590 71.855606 665.317383 67 46 36
58.367828 71.779831 663.935059 66 46 38
58.776642 71.703964 662.555725 67 46 43
60.225647 71.517082 661.012817 65 43 48
60.638481 71.440994 659.641296 63 41 43
60.012737 71.475822 658.436401 102 80 71
59.387009 71.510658 657.231628 119 95 85
58.761269 71.545486 656.026794 119 91 91
58.135555 71.580315 654.821960 115 84 97
-42.749779 61.609978 724.000000 77 43 36
-39.028103 57.950825 681.000000 78 45 36
-36.456093 55.823406 656.000000 80 46 35
-35.316856 55.823406 656.000000 80 48 39
-34.177601 55.823406 656.000000 78 50 50
-33.088707 55.908508 657.000000 81 53 54
-31.947710 55.908508 657.000000 114 82 80
-30.806717 55.908508 657.000000 144 107 96
-29.620590 55.823406 656.000000 148 105 81
-28.481333 55.823406 656.000000 156 110 77
-27.342075 55.823406 656.000000 149 103 68
-26.162874 55.738312 655.000000 146 101 63
-25.025354 55.738312 655.000000 147 102 64
-23.887854 55.738312 655.000000 150 104 75
-22.750334 55.738312 655.000000 155 105 94
-21.612812 55.738312 655.000000 161 110 113
-20.444031 55.653217 654.000000 167 116 132
-19.308245 55.653217 654.000000 170 120 144
-18.172483 55.653217 654.000000 171 124 151
-17.062750 55.738312 655.000000 174 129 157
-15.925229 55.738312 655.000000 177 133 158
-14.787708 55.738312 655.000000 178 134 156
-13.650187 55.738312 655.000000 179 135 156
-12.512688 55.738312 655.000000 179 135 156
-11.357800 55.653217 654.000000 180 137 160
-10.237645 55.738312 655.000000 182 138 160
-9.086231 55.653217 654.000000 184 138 155
-7.950447 55.653217 654.000000 191 146 154
-6.814684 55.653217 654.000000 186 142 138
-5.687583 55.738312 655.000000 165 122 114
-4.557009 55.823406 656.000000 130 87 83
-3.417751 55.823406 656.000000 105 63 63
-2.278494 55.823406 656.000000 97 58 62
-1.139258 55.823406 656.000000 90 52 63
0.000000 55.908508 657.000000 59 21 44
1.141016 55.908508 657.000000 44 8 37
2.281989 55.908508 657.000000 69 37 67
3.417751 55.823406 656.000000 93 61 86
4.557031 55.823406 656.000000 89 56 70
5.687583 55.738312 655.000000 96 61 72
6.835546 55.823406 656.000000 102 63 80
7.974782 55.823406 656.000000 106 67 83
9.114017 55.823406 656.000000 108 72 80
10.253297 55.823406 656.000000 129 96 101
11.392533 55.823406 656.000000 169 137 145
12.531813 55.823406 656.000000 183 149 158
13.671048 55.823406 656.000000 190 148 158
14.810285 55.823406 656.000000 187 141 149
15.949564 55.823406 656.000000 190 141 146
17.062750 55.738312 655.000000 193 144 146
18.200293 55.738312 655.000000 191 141 142
19.337791 55.738312 655.000000 190 142 142
20.475290 55.738312 655.000000 185 141 140
21.579836 55.653217 654.000000 180 137 131
22.715599 55.653217 654.000000 178 133 118
23.814936 55.568115 653.000000 166 118 101
24.948961 55.568115 653.000000 110 57 46
26.082989 55.568115 653.000000 79 25 25
27.217058 55.568115 653.000000 83 30 48
28.394499 55.653217 654.000000 76 28 52
29.530306 55.653217 654.000000 61 23 41
30.712957 55.738312 655.000000 86 54 59
31.850458 55.738312 655.000000 142 110 98
33.038364 55.823406 656.000000 174 138 116
34.177601 55.823406 656.000000 158 112 90
35.316879 55.823406 656.000000 148 100 77
36.456112 55.823406 656.000000 156 112 88
37.538040 55.738312 655.000000 163 122 101
38.675583 55.738312 655.000000 149 110 95
39.813084 55.738312 655.000000 123 84 76
40.950626 55.738312 655.000000 139 100 102
42.152382 55.823406 656.000000 162 123 128
43.291618 55.823406 656.000000 166 128 131
44.430893 55.823406 656.000000 167 130 133
45.570133 55.823406 656.000000 146 110 114
46.709412 55.823406 656.000000 141 106 109
47.848648 55.823406 656.000000 140 106 105
48.987885 55.823406 656.000000 131 97 91
50.127159 55.823406 656.000000 101 66 55
51.266399 55.823406 656.000000 75 38 30
52.405678 55.823406 656.000000 71 30 34
53.544914 55.823406 656.000000 66 24 31
54.684151 55.823406 656.000000 65 22 22
55.823429 55.823406 656.000000 69 25 24
56.962666 55.823406 656.000000 63 20 24
58.101948 55.823406 656.000000 60 18 28
59.241180 55.823406 656.000000 81 41 58
60.380417 55.823406 656.000000 115 76 97
61.425915 55.738312 655.000000 178 140 164
62.563416 55.738312 655.000000 190 152 177
63.700958 55.738312 655.000000 185 146 170
64.838455 55.738312 655.000000 181 139 162
65.875229 55.653217 654.000000 178 133 154
67.011040 55.653217 654.000000 174 128 147
68.146797 55.653217 654.000000 168 121 138
69.176666 55.568115 653.000000 166 120 134
70.310692 55.568115 653.000000 157 113 124
71.444717 55.568115 653.000000 156 105 111
72.578789 55.568115 653.000000 145 78 77
73.712814 55.568115 653.000000 130 56 55
74.732269 55.483021 652.000000 103 32 38
75.864555 55.483021 652.000000 98 32 40
76.996841 55.483021 652.000000 96 38 44
78.129173 55.483021 652.000000 92 41 44
79.261467 55.483021 652.000000 94 50 46
49.569099 73.215050 744.532776 116 85 93
49.896347 73.145454 742.996399 118 87 94
50.225220 73.075775 741.463074 117 87 91
49.561855 73.112701 740.185791 117 89 89
48.898529 73.149628 738.908630 116 90 90
48.235199 73.186546 737.631409 73 50 55
47.571838 73.223473 736.354126 50 30 37
46.908512 73.260399 735.076904 20 5 12
45.247353 73.404236 734.044922 12 2 7
44.583218 73.441208 732.766174 9 1 4
45.917889 73.264175 731.002991 8 2 5
46.255535 73.194000 729.486572 9 4 8
48.596806 72.909554 727.495056 10 4 8
49.941055 72.731979 725.750366 29 20 20
50.285927 72.661415 724.247864 60 48 46
51.635799 72.483528 722.513977 96 80 78
50.980438 72.520012 721.252075 114 95 95
51.330120 72.449165 719.758850 117 92 97
51.681362 72.378242 718.268677 117 90 96
52.034241 72.307228 716.781616 120 91 95
52.388710 72.236122 715.297607 121 91 93
52.744755 72.164925 713.816650 121 91 92
53.102436 72.093651 712.338806 121 92 91
52.451881 72.129860 711.086182 120 92 90
52.811954 72.058449 709.612976 119 93 90
52.162224 72.094612 708.361938 117 92 90
52.524673 72.023064 706.893311 115 90 91
52.888752 71.951424 705.427856 99 74 77
54.268204 71.771889 703.750854 84 60 65
53.621677 71.807884 702.506042 69 47 54
55.005951 71.628075 700.838379 57 36 44
54.361004 71.663979 699.596497 36 18 27
54.733082 71.591888 698.146423 20 3 13
55.106739 71.519722 696.699402 18 2 12
54.463406 71.555534 695.460693 22 6 16
53.820080 71.591347 694.221985 23 7 17
53.176727 71.627159 692.983215 21 5 14
53.554409 71.554749 691.543884 19 3 11
53.933662 71.482269 690.107605 18 3 9
54.314545 71.409698 688.674500 16 3 7
55.720428 71.228691 687.048462 15 3 6
56.105286 71.155899 685.622925 14 3 6
56.491764 71.083015 684.200562 14 2 5
56.879818 71.010033 682.781250 20 5 8
56.242897 71.045486 681.554871 23 6 10
57.660782 70.863823 679.951904 28 9 13
61.138256 70.464760 677.981628 35 15 19
62.564144 70.282639 676.394104 49 27 29
61.933594 70.317741 675.179993 63 40 37
61.303070 70.352837 673.965942 72 47 37
60.672546 70.387932 672.751892 74 48 33
59.009785 70.531868 671.716797 71 45 26
59.411472 70.458130 670.323730 70 44 24
58.780926 70.493225 669.109619 69 43 25
58.150398 70.528328 667.895569 69 44 27
58.555275 70.454414 666.508606 69 46 30
58.961742 70.380424 665.124756 68 45 33
59.369823 70.306328 663.743958 67 46 37
60.817303 70.123009 662.197998 70 48 46
61.229378 70.048698 660.824951 67 45 50
61.643059 69.974297 659.454956 65 42 45
61.018116 70.009079 658.251648 107 84 75
60.393192 70.043869 657.048401 120 95 84
59.768250 70.078651 655.845093 119 91 90
59.143322 70.113441 654.641785 114 84 96
59.561810 70.038773 653.281067 64 31 58
58.937672 70.073509 652.079285 59 28 53
-35.316856 54.684139 656.000000 80 49 41
-34.177601 54.684139 656.000000 82 52 51
-33.088707 54.767498 657.000000 86 56 59
-31.947710 54.767498 657.000000 95 64 69
-30.806717 54.767498 657.000000 117 84 86
-29.665743 54.767498 657.000000 146 111 104
-28.481333 54.684139 656.000000 161 126 110
-27.342075 54.684139 656.000000 161 125 101
-26.202818 54.684139 656.000000 159 122 96
-25.025354 54.600780 655.000000 159 120 98
-23.887854 54.600780 655.000000 163 121 108
-22.750334 54.600780 655.000000 166 119 121
-21.612812 54.600780 655.000000 169 120 133
-20.444031 54.517422 654.000000 174 123 144
-19.308245 54.517422 654.000000 174 124 150
-18.172483 54.517422 654.000000 177 131 158
-17.062750 54.600780 655.000000 181 137 162
-15.925229 54.600780 655.000000 186 142 163
-14.787708 54.600780 655.000000 187 144 162
-13.650187 54.600780 655.000000 187 143 162
-12.493585 54.517422 654.000000 187 144 163
-11.357800 54.517422 654.000000 189 146 166
-10.222015 54.517422 654.000000 190 147 166
-9.086231 54.517422 654.000000 190 145 164
-7.950447 54.517422 654.000000 193 147 161
-6.814684 54.517422 654.000000 193 147 154
-5.687583 54.600780 655.000000 190 144 143
-4.557009 54.684139 656.000000 183 136 129
-3.417751 54.684139 656.000000 154 106 96
-2.278494 54.684139 656.000000 102 54 45
-1.139258 54.684139 656.000000 86 42 37
0.000000 54.684139 656.000000 78 41 44
1.139279 54.684139 656.000000 68 35 51
2.278515 54.684139 656.000000 51 16 48
3.417751 54.684139 656.000000 68 32 65
4.557031 54.684139 656.000000 108 74 92
5.696267 54.684139 656.000000 126 91 105
6.835546 54.684139 656.000000 120 80 103
7.974782 54.684139 656.000000 110 70 90
9.114017 54.684139 656.000000 117 78 88
10.253297 54.684139 656.000000 166 128 135
11.392533 54.684139 656.000000 188 149 162
12.531813 54.684139 656.000000 188 147 162
13.671048 54.684139 656.000000 191 146 162
14.810285 54.684139 656.000000 191 144 160
15.925250 54.600780 655.000000 191 142 159
17.062750 54.600780 655.000000 192 143 158
18.200293 54.600780 655.000000 190 142 155
19.337791 54.600780 655.000000 193 146 157
20.475290 54.600780 655.000000 195 153 162
21.612833 54.600780 655.000000 192 151 155
22.715599 54.517422 654.000000 184 140 135
23.814936 54.434063 653.000000 173 125 117
24.948961 54.434063 653.000000 149 94 89
26.082989 54.434063 653.000000 124 66 73
27.258736 54.517422 654.000000 94 34 61
28.394499 54.517422 654.000000 67 15 48
29.575459 54.600780 655.000000 58 19 47
30.712957 54.600780 655.000000 104 74 90
31.899086 54.684139 656.000000 161 134 131
33.038364 54.684139 656.000000 178 148 136
34.177601 54.684139 656.000000 192 152 139
35.316879 54.684139 656.000000 188 144 131
36.456112 54.684139 656.000000 185 141 128
37.538040 54.600780 655.000000 177 135 124
38.675583 54.600780 655.000000 170 130 124
39.813084 54.600780 655.000000 172 133 130
41.013145 54.684139 656.000000 179 139 140
42.152382 54.684139 656.000000 177 137 138
43.291618 54.684139 656.000000 169 127 126
44.430893 54.684139 656.000000 147 105 106
45.570133 54.684139 656.000000 125 86 90
46.709412 54.684139 656.000000 112 75 83
47.848648 54.684139 656.000000 56 20 33
48.987885 54.684139 656.000000 70 34 45
50.050751 54.600780 655.000000 89 53 55
51.188248 54.600780 655.000000 86 48 48
52.325790 54.600780 655.000000 66 25 28
53.463291 54.600780 655.000000 62 19 22
54.684151 54.684139 656.000000 88 43 45
55.823429 54.684139 656.000000 135 89 88
56.962666 54.684139 656.000000 155 109 103
58.101948 54.684139 656.000000 141 95 89
59.241180 54.684139 656.000000 140 94 94
60.380417 54.684139 656.000000 165 121 127
61.425915 54.600780 655.000000 187 146 160
62.563416 54.600780 655.000000 190 150 168
63.700958 54.600780 655.000000 184 143 164
64.838455 54.600780 655.000000 179 137 159
65.975960 54.600780 655.000000 173 128 150
67.011040 54.517422 654.000000 170 123 145
68.146797 54.517422 654.000000 168 119 140
69.282608 54.517422 654.000000 167 117 135
70.418365 54.517422 654.000000 160 112 126
71.444717 54.434063 653.000000 154 96 105
72.578789 54.434063 653.000000 154 74 76
73.712814 54.434063 653.000000 130 40 43
74.846878 54.434063 653.000000 107 20 32
75.864555 54.350697 652.000000 103 24 37
76.996841 54.350697 652.000000 98 28 41
78.129173 54.350697 652.000000 97 38 46
79.261467 54.350697 652.000000 100 50 53
80.393799 54.350697 652.000000 95 53 51
90.153847 60.102539 721.000000 84 48 42
51.514977 71.562866 743.995178 118 86 92
51.843864 71.494919 742.461853 118 86 90
52.174377 71.426888 740.931641 117 86 87
51.512623 71.463730 739.657471 116 87 84
50.850891 71.500565 738.383301 105 78 76
50.189159 71.537399 737.109192 63 39 41
49.527409 71.574234 735.835022 39 18 22
48.865677 71.611069 734.560852 21 5 10
47.206078 71.753082 733.531921 12 1 5
47.542191 71.684738 732.012573 10 2 5
50.878235 71.300499 729.769653 10 2 6
51.219933 71.231842 728.261047 13 2 12
49.561150 71.373810 727.233704 14 2 9
52.909973 70.988861 725.015442 52 40 37
52.254646 71.025337 723.753601 70 56 49
53.606213 70.850838 722.022827 108 92 87
53.956707 70.781685 720.531128 116 96 97
53.303776 70.818031 719.273926 115 92 101
53.656666 70.748756 717.786865 117 92 104
54.011185 70.679382 716.302856 119 95 102
54.367302 70.609932 714.822021 119 94 98
54.725002 70.540382 713.344177 119 96 95
54.075272 70.576553 712.093140 121 98 95
53.425510 70.612717 710.842041 121 97 95
53.786438 70.542992 709.370422 115 91 91
54.148956 70.473183 707.901855 101 77 79
54.513046 70.403282 706.436340 84 62 65
