ply
format ascii 1.0
element vertex 1144
property float32 x
property float32 y
property float32 z
property uchar red
property uchar green
property uchar blue
end_header
-0.920762 -26.917952 1154.880981 26 37 24
8.853580 -31.254536 1140.383789 34 38 21
8.870592 -35.526577 1140.344604 42 34 16
8.887651 -39.798500 1140.305298 44 31 12
8.904663 -44.070541 1140.266113 46 32 15
8.921674 -48.342461 1140.226929 47 34 19
8.938685 -52.614506 1140.187744 49 39 27
8.955696 -56.886429 1140.148560 53 44 35
19.305042 -61.477001 1124.798706 57 48 52
19.322201 -65.780296 1124.759155 57 52 69
19.339357 -70.083481 1124.719604 58 47 63
19.356466 -74.386787 1124.680176 57 47 57
19.373623 -78.689957 1124.640747 56 50 58
19.390732 -82.993263 1124.601318 54 52 60
19.407888 -87.296448 1124.561768 52 50 62
19.425045 -91.599747 1124.522217 60 49 64
19.442154 -95.902931 1124.482788 69 57 61
9.125856 -99.606369 1139.756592 69 54 57
9.142868 -103.878288 1139.717407 69 58 62
9.159879 -108.150337 1139.678223 74 63 67
9.176890 -112.422264 1139.639038 79 62 77
-28.505201 -450.421570 1194.366943 139 98 74
-18.719194 -457.680969 1179.842896 99 78 19
-18.702522 -461.864319 1179.804443 59 30 21
-18.685852 -466.047760 1179.766113 30 43 23
-18.669180 -470.231110 1179.727661 1 1 29
61.922333 517.545532 1071.266602 13 8 13
61.939976 513.115479 1071.225952 23 16 15
61.957619 508.685455 1071.185303 21 13 17
61.975262 504.255463 1071.144775 20 14 19
61.992905 499.825439 1071.104126 17 14 22
62.010548 495.395447 1071.063477 14 14 18
62.028191 490.965424 1071.022827 19 19 14
51.133312 482.780426 1087.081787 25 19 9
51.150860 478.383392 1087.041382 24 13 5
51.168354 473.986389 1087.001099 22 12 3
51.185852 469.589386 1086.960815 21 11 1
51.203400 465.192261 1086.920410 20 10 4
51.220898 460.795288 1086.880005 18 11 8
51.238392 456.398224 1086.839722 17 12 5
51.255939 452.001251 1086.799316 17 9 3
51.273438 447.604218 1086.759033 17 9 5
51.290932 443.207214 1086.718750 17 10 8
51.308479 438.810181 1086.678345 17 12 5
51.325977 434.413147 1086.637939 19 9 3
51.343472 430.016144 1086.597656 21 7 2
51.361019 425.619141 1086.557251 20 7 1
51.378517 421.222137 1086.516968 18 8 2
51.396015 416.825104 1086.476563 16 8 3
51.413559 412.428070 1086.436157 14 9 4
51.431057 408.031067 1086.395874 12 8 5
41.108044 400.639282 1101.612915 10 7 9
41.125443 396.273499 1101.572876 11 6 13
41.142841 391.907745 1101.532837 13 5 7
41.160194 387.541992 1101.492798 11 5 1
41.177593 383.176239 1101.452759 9 5 1
41.194992 378.810455 1101.412598 10 6 1
41.212395 374.444733 1101.372559 11 7 2
41.229744 370.078979 1101.332520 12 7 4
41.247147 365.713226 1101.292480 12 7 3
41.264545 361.347443 1101.252441 10 6 3
41.281944 356.981689 1101.212280 8 5 2
41.299347 352.615906 1101.172241 10 4 1
41.316696 348.250153 1101.132202 13 4 1
41.334095 343.884399 1101.092163 11 6 1
41.351498 339.518616 1101.052124 9 11 4
41.368896 335.152863 1101.011963 12 11 7
41.386295 330.787079 1100.971924 15 8 5
41.403648 326.421326 1100.931885 9 4 3
41.421047 322.055542 1100.891846 2 1 42
41.438446 317.689819 1100.851807 82 71 82
41.455849 313.324036 1100.811646 161 139 105
31.130136 306.619995 1116.035278 162 147 129
31.147440 302.285492 1115.995361 163 145 146
31.164694 297.950989 1115.955566 165 144 163
31.181948 293.616486 1115.915894 167 144 155
31.199202 289.281982 1115.876099 176 151 147
20.872810 282.765472 1131.101196 184 161 159
20.889919 278.462219 1131.061890 156 165 171
20.907076 274.158936 1131.022339 129 126 132
20.924232 269.855682 1130.982788 65 74 93
31.285521 267.609436 1115.677246 1 1 51
31.302824 263.274933 1115.637329 18 6 10
31.320078 258.940430 1115.597656 35 22 13
31.337332 254.605927 1115.557861 31 21 17
31.354588 250.271439 1115.518066 28 21 16
21.027077 244.036240 1130.745850 28 22 16
21.044186 239.733017 1130.706421 28 24 8
21.061342 235.429764 1130.666870 28 23 1
21.078499 231.126511 1130.627319 28 17 9
10.750298 225.047623 1145.856567 27 22 17
10.767308 220.775635 1145.817383 27 22 15
21.129921 218.216797 1130.508911 29 26 14
21.147030 213.913498 1130.469482 32 28 15
21.164186 209.610260 1130.429932 35 30 16
21.181345 205.307022 1130.390381 39 24 24
21.198452 201.003784 1130.350952 35 23 33
21.215609 196.700546 1130.311523 31 22 29
21.232767 192.397293 1130.271973 30 17 26
21.249874 188.094055 1130.232544 30 13 27
21.267033 183.790817 1130.192993 32 17 28
21.284189 179.487564 1130.153442 34 18 18
21.301298 175.184326 1130.114014 28 17 9
21.318455 170.881104 1130.074585 22 16 5
21.335562 166.577850 1130.035156 24 20 1
31.699913 163.581406 1114.722534 27 22 5
31.717167 159.246887 1114.682739 27 23 10
31.734423 154.912399 1114.643066 27 24 5
31.751677 150.577835 1114.603271 27 17 1
42.116611 147.425095 1099.289307 28 17 5
42.134010 143.059341 1099.249268 26 18 9
42.151409 138.693573 1099.209229 24 15 13
42.168812 134.327820 1099.169067 25 16 18
42.186161 129.962051 1099.129150 27 17 19
42.203560 125.596298 1099.088989 33 21 21
31.872553 120.236343 1114.324829 40 23 18
21.541252 114.938904 1129.561279 37 25 16
21.558409 110.635666 1129.521729 35 28 15
11.226707 105.431999 1144.758911 32 25 14
11.243718 101.160019 1144.719727 30 22 18
11.260730 96.888031 1144.680542 33 21 22
11.277789 92.616051 1144.641235 35 20 16
11.294800 88.344009 1144.602051 31 20 11
11.311811 84.072021 1144.562866 27 21 12
11.328822 79.800041 1144.523682 23 18 14
11.345834 75.528061 1144.484497 20 12 14
11.362844 71.256073 1144.445313 18 14 15
21.729834 67.603195 1129.126831 17 15 12
21.746941 63.299953 1129.087402 22 12 10
21.764099 58.996716 1129.047852 28 9 15
21.781256 54.693474 1129.008301 26 11 20
21.798363 50.390236 1128.968872 25 14 17
21.815521 46.086994 1128.929321 24 14 15
21.832678 41.783756 1128.889893 23 14 15
21.849787 37.480515 1128.850464 23 13 15
21.866943 33.177273 1128.810913 22 13 9
21.884050 28.873970 1128.771484 22 19 4
21.901209 24.570730 1128.731934 22 18 3
21.918365 20.267490 1128.692383 24 12 3
21.935474 15.964249 1128.652954 25 9 14
21.952631 11.661009 1128.613525 23 12 25
11.618061 7.176351 1143.857300 21 17 24
11.635120 2.904308 1143.817993 25 21 23
11.652132 -1.367736 1143.778809 29 26 24
11.669143 -5.639657 1143.739624 30 22 25
11.686154 -9.911699 1143.700439 31 24 25
1.926013 -14.207409 1158.096802 37 30 26
1.942879 -18.449930 1158.057983 44 30 23
1.959793 -22.692327 1158.018921 38 31 20
1.976707 -26.934849 1157.979980 33 39 17
11.771210 -31.271551 1143.504517 35 37 14
11.788221 -35.543591 1143.465332 37 30 12
11.805232 -39.815514 1143.426147 37 30 10
11.822292 -44.087555 1143.386841 38 30 10
11.839303 -48.359474 1143.347656 42 27 10
11.856315 -52.631519 1143.308472 45 24 21
11.873325 -56.903442 1143.269287 49 36 33
11.890337 -61.175484 1143.229980 53 60 57
11.907348 -65.447525 1143.190796 52 49 81
22.278322 -70.100616 1127.863159 52 45 70
22.295429 -74.403923 1127.823730 55 47 59
22.312588 -78.707100 1127.784180 59 49 60
22.329744 -83.010406 1127.744629 61 53 62
22.346851 -87.313591 1127.705200 64 63 64
22.364010 -91.616882 1127.665771 64 60 67
12.026475 -95.351341 1142.916382 64 58 61
12.043486 -99.623383 1142.877197 64 50 56
12.060497 -103.895302 1142.838013 65 47 61
12.077508 -108.167351 1142.798828 71 58 66
12.094520 -112.439278 1142.759644 78 63 80
12.111530 -116.711311 1142.720459 79 64 94
2.517419 -162.693710 1156.734253 124 90 106
2.534333 -166.936111 1156.695313 146 122 104
2.551247 -171.178619 1156.656372 169 154 118
2.568112 -175.421021 1156.617432 136 183 133
2.585026 -179.663528 1156.578491 103 82 82
2.601940 -183.906067 1156.539551 77 46 32
2.618805 -188.148453 1156.500732 52 53 53
2.635719 -192.390991 1156.461670 60 55 74
2.652633 -196.633392 1156.422729 69 58 74
-25.684788 -446.284302 1197.439331 139 135 127
-25.668262 -450.438141 1197.401245 122 87 76
-15.862095 -457.697632 1182.898804 90 69 25
-15.845424 -461.880981 1182.860352 58 37 35
-15.828753 -466.064423 1182.822021 29 28 46
-15.812081 -470.247772 1182.783569 1 1 57
75.882111 521.513733 1058.429321 11 9 7
75.899902 517.050720 1058.388306 20 14 11
75.917694 512.587708 1058.347412 20 13 16
65.000862 504.237823 1074.380859 20 13 22
65.018501 499.807800 1074.340210 14 16 28
65.036148 495.377777 1074.299561 9 16 21
65.053787 490.947784 1074.258911 15 21 15
65.071434 486.517792 1074.218262 21 21 11
65.089081 482.087769 1074.177612 21 14 7
54.171387 473.968872 1090.213135 21 14 7
54.188885 469.571869 1090.172852 19 14 7
54.206429 465.174744 1090.132446 17 12 8
54.223927 460.777771 1090.092041 16 12 8
54.241425 456.380707 1090.051758 15 12 8
54.258968 451.983765 1090.011353 16 10 8
54.276466 447.586700 1089.971069 17 11 6
54.293964 443.189697 1089.930664 17 12 5
54.311508 438.792664 1089.890259 17 13 4
54.329006 434.395630 1089.849976 21 9 2
54.346504 429.998657 1089.809692 25 7 2
54.364048 425.601624 1089.769287 22 7 3
54.381546 421.204620 1089.729004 20 9 9
54.399044 416.807587 1089.688599 17 11 15
54.416588 412.410553 1089.648193 15 9 9
54.434086 408.013580 1089.607910 11 8 3
44.089798 400.621887 1104.802124 8 7 5
44.107151 396.256104 1104.762207 10 9 8
44.124550 391.890350 1104.722046 12 8 4
44.141949 387.524597 1104.682007 10 7 1
44.159351 383.158844 1104.641846 9 6 1
44.176701 378.793091 1104.601929 10 7 1
44.194099 374.427338 1104.561890 11 7 1
44.211502 370.061584 1104.521729 11 7 2
44.228901 365.695831 1104.481689 11 6 4
44.246300 361.330048 1104.441528 8 10 5
44.263653 356.964294 1104.401611 5 7 4
44.281052 352.598541 1104.361450 11 4 2
44.298454 348.232788 1104.321411 17 5 7
44.315853 343.867004 1104.281372 13 7 12
44.333202 339.501221 1104.241333 10 10 9
44.350605 335.135468 1104.201294 12 12 6
44.368004 330.769684 1104.161133 14 5 4
44.385403 326.403931 1104.121094 8 1 2
44.402805 322.038177 1104.081055 3 3 42
34.055988 315.271729 1119.281006 86 87 83
34.073242 310.937195 1119.241333 169 153 112
34.090496 306.602722 1119.201538 165 156 142
34.107750 302.268219 1119.161865 162 146 151
34.125053 297.933716 1119.121948 165 148 160
34.142307 293.599213 1119.082153 168 148 153
23.794678 287.051575 1134.284302 176 153 147
23.811787 282.748322 1134.244873 184 163 156
23.828943 278.445068 1134.205322 149 173 164
34.211372 276.261169 1118.923096 114 109 128
34.228626 271.926666 1118.883301 57 58 92
34.245880 267.592163 1118.843628 1 2 52
34.263134 263.257660 1118.803833 13 8 12
34.280437 258.923187 1118.763916 26 22 14
34.297691 254.588669 1118.724243 26 25 16
34.314945 250.254181 1118.684448 26 21 15
23.966053 244.019089 1133.889404 30 21 15
23.983212 239.715866 1133.849854 35 22 9
24.000368 235.412628 1133.810425 32 24 2
24.017477 231.109375 1133.770996 30 22 7
13.667939 225.030609 1148.977295 28 21 13
13.684950 220.758621 1148.938110 26 24 10
24.068899 218.199661 1133.652466 29 26 7
24.086056 213.896362 1133.612915 32 27 9
24.103212 209.593109 1133.573486 32 30 10
24.120321 205.289871 1133.534058 33 27 15
24.137478 200.986633 1133.494507 33 28 21
24.154634 196.683411 1133.454956 33 26 23
24.171743 192.380157 1133.415527 31 25 26
24.188900 188.076920 1133.375977 30 23 34
24.206009 183.773682 1133.336670 30 21 43
24.223166 179.470428 1133.297119 30 19 30
24.240322 175.167191 1133.257568 29 18 18
24.257431 170.863953 1133.218140 29 21 10
34.642971 167.898636 1117.928711 28 25 3
34.660225 163.564133 1117.889038 27 23 8
34.677528 159.229614 1117.849121 27 22 14
34.694782 154.895126 1117.809326 28 24 11
34.712036 150.560577 1117.769653 27 17 7
45.098366 147.407700 1102.478516 26 19 10
45.115765 143.041946 1102.438477 19 21 12
45.133118 138.676178 1102.398438 12 19 13
45.150517 134.310425 1102.358398 18 18 14
45.167919 129.944672 1102.318237 24 19 13
45.185318 125.578911 1102.278198 34 20 12
34.832912 120.219078 1117.491089 44 21 12
24.480278 114.921761 1132.704712 38 22 12
14.127386 109.686966 1147.918823 33 27 15
14.144398 105.414986 1147.879639 32 26 17
14.161408 101.143005 1147.840454 31 24 16
14.178420 96.871017 1147.801270 36 21 16
14.195431 92.599037 1147.761963 41 19 14
14.212442 88.326996 1147.722778 36 24 13
14.229453 84.055008 1147.683594 32 22 11
14.246465 79.783028 1147.644409 26 21 9
14.263475 75.511047 1147.605225 21 17 11
14.280536 71.239059 1147.565918 18 14 14
14.297546 66.967087 1147.526733 15 14 10
14.314558 62.695103 1147.487549 20 15 5
24.703123 58.979576 1132.191284 26 15 10
24.720232 54.676334 1132.151855 24 16 15
24.737389 50.373093 1132.112427 23 15 13
24.754498 46.069855 1132.072998 22 14 12
24.771654 41.766613 1132.033447 21 14 17
24.788811 37.463375 1131.993896 20 17 22
24.805920 33.160133 1131.954468 20 17 14
24.823076 28.856831 1131.914917 19 18 6
24.840233 24.553591 1131.875488 19 16 6
24.857342 20.250349 1131.836060 20 15 6
24.874498 15.947108 1131.796509 21 14 15
24.891655 11.643868 1131.756958 18 13 24
14.535751 7.159335 1146.977905 16 15 21
14.552763 2.887291 1146.938721 21 22 19
14.569774 -1.384752 1146.899536 26 22 18
14.586785 -5.656673 1146.860352 28 22 17
14.603796 -9.928716 1146.821167 30 24 17
4.823494 -14.224308 1161.195923 39 29 17
4.840360 -18.466829 1161.157104 49 29 21
4.857274 -22.709225 1161.118164 44 30 25
4.874188 -26.951748 1161.079102 40 33 19
14.688901 -31.288567 1146.625122 36 36 14
14.705912 -35.560608 1146.585938 32 32 12
14.722923 -39.832531 1146.546753 31 27 11
14.739934 -44.104572 1146.507568 31 26 10
14.756946 -48.376492 1146.468384 36 26 9
14.773956 -52.648537 1146.429199 42 25 13
14.790968 -56.920460 1146.390015 45 29 17
14.807979 -61.192501 1146.350830 49 38 37
14.825039 -65.464539 1146.311523 48 47 57
25.217299 -70.117760 1131.006714 47 47 55
25.234455 -74.421066 1130.967163 54 47 52
25.251612 -78.724243 1130.927734 62 48 61
25.268721 -83.027542 1130.888306 69 55 70
25.285877 -87.330727 1130.848755 76 64 77
25.302986 -91.634026 1130.809326 67 74 85
14.944117 -95.368355 1146.037109 59 49 63
14.961128 -99.640396 1145.997925 60 47 41
14.978139 -103.912315 1145.958740 61 46 45
14.995151 -108.184364 1145.919556 69 54 50
15.012210 -112.456291 1145.880249 77 59 62
15.029222 -116.728325 1145.841064 78 66 74
15.046232 -121.000252 1145.801880 80 64 69
5.262820 -124.528389 1160.183838 84 69 64
5.398035 -158.468063 1159.872314 76 64 111
5.414900 -162.710602 1159.833374 53 88 88
5.431814 -166.953003 1159.794434 91 112 65
5.448728 -171.195511 1159.755493 130 140 74
5.465593 -175.437927 1159.716675 104 168 82
5.482507 -179.680435 1159.677612 79 77 62
5.499421 -183.922974 1159.638672 77 46 42
5.516286 -188.165359 1159.599854 76 66 56
5.533200 -192.407883 1159.560913 74 85 69
5.550114 -196.650284 1159.521851 73 73 67
-22.864349 -442.146912 1200.511841 161 147 111
-22.847776 -446.300842 1200.473755 133 143 100
-22.831251 -450.454681 1200.435669 105 70 67
-22.814678 -454.608612 1200.397461 81 60 34
-12.988251 -461.897644 1185.916382 58 29 28
-12.971581 -466.081085 1185.878052 29 14 23
-12.954909 -470.264435 1185.839600 1 1 81
78.930237 521.495972 1061.689575 12 11 1
78.948021 517.032898 1061.648682 20 13 8
78.965813 512.569946 1061.607666 20 13 16
68.026474 504.220184 1077.617065 20 12 25
68.044121 499.790161 1077.576416 18 15 34
68.061760 495.360138 1077.535767 16 18 25
68.079407 490.930145 1077.495117 18 21 17
68.097046 486.500153 1077.454468 21 24 13
68.114693 482.070129 1077.413818 20 15 10
68.132332 477.640106 1077.373169 20 13 12
57.191914 469.554352 1093.384888 18 12 14
57.209457 465.157227 1093.344360 17 12 11
57.226955 460.760254 1093.304077 16 12 9
57.244453 456.363190 1093.263794 16 14 11
57.261997 451.966248 1093.223389 16 10 13
57.279495 447.569183 1093.183105 16 12 8
57.296993 443.172180 1093.142700 16 12 3
57.314541 438.775146 1093.102295 17 14 2
57.332035 434.378113 1093.062012 19 9 2
57.349533 429.981140 1093.021729 21 7 3
57.367081 425.584106 1092.981323 19 8 5
57.384575 421.187103 1092.940918 18 10 16
57.402122 416.790070 1092.900513 16 10 28
57.419621 412.393036 1092.860229 14 9 14
57.437119 407.996063 1092.819946 12 8 1
47.071445 400.604492 1107.991455 10 7 2
47.088844 396.238708 1107.951294 10 8 4
47.106247 391.872955 1107.911255 9 9 2
47.123646 387.507202 1107.871094 9 5 1
47.141045 383.141479 1107.831055 9 5 1
47.158398 378.775696 1107.791138 10 8 1
47.175797 374.409943 1107.750977 11 9 1
47.193195 370.044189 1107.710938 11 8 1
47.210598 365.678436 1107.670776 12 5 4
47.227947 361.312653 1107.630859 10 8 8
47.245346 356.946930 1107.590820 8 9 6
47.262749 352.581146 1107.550659 11 8 4
47.280148 348.215393 1107.510620 13 8 13
47.297546 343.849609 1107.470459 12 8 23
47.314899 339.483826 1107.430542 11 9 14
47.332298 335.118073 1107.390381 9 10 6
47.349701 330.752289 1107.350342 8 3 3
47.367100 326.386566 1107.310303 23 1 1
47.384499 322.020782 1107.270142 39 5 42
47.401852 317.655029 1107.230225 105 98 84
37.033615 310.919922 1122.407715 171 167 119
37.050919 306.585449 1122.367920 167 158 155
37.068172 302.250946 1122.328125 163 147 156
37.085426 297.916443 1122.288330 165 147 157
37.102680 293.581970 1122.248657 168 149 152
26.733656 287.034424 1137.427856 176 153 148
26.750813 282.731201 1137.388306 184 166 153
37.154491 280.578461 1122.129272 146 171 158
37.171745 276.243896 1122.089478 108 92 125
37.188999 271.909393 1122.049805 55 29 92
37.206303 267.574890 1122.009888 2 4 53
37.223557 263.240387 1121.970093 14 13 14
37.240810 258.905914 1121.930420 26 22 14
37.258064 254.571396 1121.890625 26 21 15
37.275318 250.236908 1121.850952 26 21 15
26.905079 244.001953 1137.032959 30 21 15
26.922235 239.698730 1136.993408 34 21 9
26.939344 235.395477 1136.953979 32 23 4
26.956501 231.092224 1136.914429 30 25 6
26.973660 226.789001 1136.874878 28 26 9
16.602640 220.741608 1152.058716 26 27 5
27.007923 218.182526 1136.796021 28 27 1
27.025082 213.879227 1136.756470 31 27 3
27.042189 209.575974 1136.717041 32 26 5
27.059347 205.272736 1136.677490 33 26 7
27.076504 200.969498 1136.637939 35 26 9
27.093611 196.666260 1136.598511 38 26 17
27.110769 192.363007 1136.559082 36 27 26
27.127876 188.059769 1136.519653 33 29 42
27.145035 183.756546 1136.480103 32 28 59
27.162191 179.453293 1136.440552 32 27 43
27.179298 175.150055 1136.401123 30 22 27
27.196457 170.846817 1136.361572 29 26 16
37.603394 167.881363 1121.095093 27 27 5
37.620647 163.546875 1121.055298 26 29 12
37.637901 159.212357 1121.015503 25 25 19
37.655155 154.877869 1120.975830 25 25 16
37.672409 150.543304 1120.936035 25 21 14
37.689713 146.208801 1120.896240 26 21 15
37.706966 141.874313 1120.856445 20 21 16
37.724220 137.539810 1120.816650 15 21 13
37.741474 133.205307 1120.776978 18 19 11
37.758778 128.870804 1120.737061 22 14 7
37.776031 124.536308 1120.697266 29 17 4
37.793285 120.201813 1120.657593 37 21 6
27.419302 114.904625 1135.848267 34 24 9
17.045029 109.669952 1151.039551 32 26 15
17.062038 105.397972 1151.000366 32 26 21
17.079050 101.125992 1150.961182 31 26 15
17.096062 96.854004 1150.921997 35 21 10
17.113121 92.582024 1150.882690 38 19 12
17.130133 88.309982 1150.843506 35 24 15
7.332356 83.335442 1165.190552 32 34 9
17.164154 79.766014 1150.765137 28 29 4
17.181166 75.494034 1150.725952 24 25 9
17.198177 71.222046 1150.686646 21 21 14
17.215189 66.950066 1150.647461 17 17 7
17.232199 62.678089 1150.608276 20 17 1
17.249210 58.406105 1150.569092 23 17 5
17.266222 54.134125 1150.529907 22 16 10
17.283234 49.862141 1150.490723 21 16 10
27.693523 46.052715 1135.216431 21 14 10
27.710680 41.749474 1135.176880 20 14 19
27.727789 37.446232 1135.137573 22 17 29
27.744946 33.142990 1135.098022 24 21 19
27.762102 28.839691 1135.058472 22 21 9
27.779211 24.536449 1135.019043 20 22 9
27.796368 20.233210 1134.979492 20 16 9
27.813524 15.929969 1134.939941 21 17 16
17.436382 11.414240 1150.137939 20 15 23
17.453394 7.142319 1150.098755 20 14 19
17.470453 2.870276 1150.059448 24 21 15
17.487465 -1.401768 1150.020264 28 22 12
17.504475 -5.673689 1149.981079 29 23 9
17.521486 -9.945731 1149.941895 31 25 9
7.721037 -14.241206 1164.295044 37 28 9
7.737902 -18.483727 1164.256226 43 29 19
7.754816 -22.726124 1164.217285 41 30 30
7.771730 -26.968645 1164.178345 39 31 22
17.606543 -31.305582 1149.745850 39 32 15
17.623554 -35.577625 1149.706665 40 34 13
17.640564 -39.849548 1149.667480 37 30 12
17.657625 -44.121586 1149.628174 34 27 10
17.674635 -48.393505 1149.588989 34 27 8
17.691647 -52.665550 1149.549805 34 21 4
17.708658 -56.937473 1149.510620 38 26 1
17.725670 -61.209515 1149.471436 42 34 17
17.742680 -65.481560 1149.432251 38 36 34
17.759691 -69.753487 1149.393066 34 39 40
17.776703 -74.025528 1149.353882 48 47 46
17.793715 -78.297447 1149.314697 63 48 62
17.810724 -82.569489 1149.275513 74 55 78
17.827785 -86.841415 1149.236206 86 88 91
17.844795 -91.113457 1149.197021 69 75 104
17.861807 -95.385376 1149.157837 52 40 65
17.878819 -99.657417 1149.118652 56 43 26
17.895830 -103.929329 1149.079468 60 46 30
17.912840 -108.201378 1149.040161 65 52 35
17.929852 -112.473305 1149.000977 70 56 44
17.946863 -116.745338 1148.961792 73 59 54
8.143449 -120.302773 1163.321899 75 63 52
8.160362 -124.545288 1163.282959 79 66 50
18.117023 -159.465179 1148.569824 82 82 113
8.312442 -162.727509 1162.932617 55 7 70
8.329356 -166.969910 1162.893555 66 4 27
8.346271 -171.212418 1162.854614 77 1 29
8.363135 -175.454819 1162.815796 74 37 32
8.380050 -179.697327 1162.776855 72 73 42
8.396963 -183.939865 1162.737793 75 76 53
8.413829 -188.182251 1162.698975 78 79 59
8.430742 -192.424774 1162.660034 78 83 65
8.447657 -196.667175 1162.621094 78 88 61
8.464522 -200.909698 1162.582153 77 83 58
8.481436 -205.152100 1162.543213 75 78 51
8.498350 -209.394638 1162.504272 75 59 44
8.515215 -213.637039 1162.465454 74 41 48
-20.043850 -438.009583 1203.584473 144 104 135
-20.027277 -442.163452 1203.546265 140 99 104
-20.010752 -446.317413 1203.508179 116 76 73
-19.994179 -450.471222 1203.470093 92 54 58
-19.977654 -454.625153 1203.432007 69 52 43
-10.131030 -461.914307 1188.972412 46 22 22
-10.114359 -466.097748 1188.933960 40 9 1
81.978416 521.478149 1064.949951 13 9 7
81.996208 517.015137 1064.908936 21 15 13
82.014000 512.552185 1064.867920 21 14 20
71.052078 504.202545 1080.853149 21 14 25
71.069717 499.772522 1080.812500 22 15 30
71.087364 495.342499 1080.771851 24 17 23
71.105003 490.912476 1080.731201 22 22 16
71.122650 486.482513 1080.690552 21 21 11
71.140289 482.052490 1080.649902 20 16 7
71.157936 477.622467 1080.609253 19 13 9
60.195004 469.536835 1096.596802 18 12 12
60.212502 465.139709 1096.556519 18 12 9
60.230045 460.742737 1096.516113 17 13 6
60.247543 456.345703 1096.475830 17 12 11
60.265041 451.948730 1096.435547 16 11 15
60.282589 447.551666 1096.395020 15 11 11
60.300083 443.154663 1096.354736 16 12 7
60.317581 438.757629 1096.314453 18 11 11
60.335129 434.360626 1096.274048 17 10 16
60.352623 429.963623 1096.233765 17 9 11
60.370121 425.566589 1096.193359 17 9 7
60.387669 421.169586 1096.152954 17 10 15
60.405167 416.772552 1096.112671 15 12 22
50.018402 409.318665 1111.260742 14 7 12
50.035801 404.952911 1111.220703 13 8 2
50.053200 400.587097 1111.180542 13 7 4
50.070602 396.221313 1111.140503 10 7 6
50.088001 391.855560 1111.100464 7 8 4
50.105354 387.489838 1111.060425 8 4 2
50.122753 383.124084 1111.020386 9 4 1
50.140152 378.758301 1110.980225 10 9 1
50.157555 374.392548 1110.940186 12 9 1
50.174904 370.026794 1110.900146 12 9 1
50.192303 365.661041 1110.860107 13 8 3
50.209705 361.295288 1110.820068 12 7 5
50.227104 356.929535 1110.779907 12 8 4
50.244503 352.563751 1110.739868 11 10 3
50.261856 348.197998 1110.699829 10 10 7
50.279255 343.832214 1110.659790 11 10 12
50.296654 339.466431 1110.619751 12 9 8
50.314056 335.100708 1110.579590 7 9 5
50.331406 330.734924 1110.539673 2 2 3
50.348808 326.369171 1110.499512 38 1 1
50.366207 322.003387 1110.459473 75 46 55
50.383606 317.637634 1110.419434 124 109 109
39.993977 310.902649 1125.574097 174 158 135
40.011230 306.568207 1125.534302 169 160 161
40.028534 302.233704 1125.494507 165 147 159
40.045788 297.899200 1125.454712 166 146 157
40.063042 293.564697 1125.414917 168 150 158
40.080296 289.230194 1125.375244 176 154 159
40.097549 284.895691 1125.335449 184 166 159
40.114853 280.561188 1125.295654 143 169 160
40.132107 276.226624 1125.255859 103 85 106
40.149361 271.892120 1125.216064 53 1 53
40.166615 267.557617 1125.176392 4 5 38
40.183918 263.223145 1125.136475 15 18 24
40.201172 258.888641 1125.096680 27 19 19
40.218426 254.554138 1125.057007 26 21 14
40.235680 250.219650 1125.017212 26 20 13
29.844105 243.984818 1140.176392 30 20 12
29.861214 239.681595 1140.136963 34 21 8
29.878370 235.378342 1140.097412 32 23 5
29.895527 231.075089 1140.057983 31 23 14
29.912636 226.771866 1140.018555 28 31 24
19.520283 220.724579 1155.179443 26 28 15
29.946949 218.165375 1139.939453 28 30 7
29.964058 213.862091 1139.900024 30 25 6
29.981215 209.558838 1139.860474 31 25 6
29.998323 205.255600 1139.821167 33 25 5
30.015480 200.952362 1139.781616 38 26 5
30.032637 196.649124 1139.742065 44 26 14
40.460129 193.871094 1124.500122 40 31 24
40.477383 189.536591 1124.460327 37 29 35
40.494640 185.202103 1124.420654 35 39 47
40.511940 180.867599 1124.380737 34 28 40
30.118324 175.132919 1139.544678 32 17 33
30.135481 170.829681 1139.505127 30 24 22
40.563705 167.864105 1124.261475 27 34 11
40.581005 163.529602 1124.221680 25 29 24
40.598263 159.195084 1124.181885 23 26 37
40.615517 154.860611 1124.142090 22 25 27
30.221169 149.313400 1139.307739 24 21 17
30.238327 145.010162 1139.268188 26 21 16
30.255434 140.706909 1139.228760 22 21 15
30.272593 136.403687 1139.189209 18 20 13
30.289749 132.100449 1139.149658 19 20 11
30.306856 127.797203 1139.110229 20 14 9
30.324015 123.493965 1139.070801 25 14 8
30.341171 119.190727 1139.031250 30 18 9
19.945707 113.924919 1154.199341 31 26 11
19.962719 109.652931 1154.160156 32 26 20
19.979731 105.380951 1154.120972 32 26 30
19.996740 101.108971 1154.081787 32 26 23
20.013752 96.836983 1154.042603 34 21 16
10.196058 91.803520 1168.367554 36 20 20
10.212972 87.561005 1168.328613 34 24 23
10.229837 83.318542 1168.289673 32 27 19
10.246751 79.076088 1168.250732 30 31 15
10.263665 74.833618 1168.211792 28 27 16
20.115868 71.205032 1153.807373 24 26 18
20.132879 66.933052 1153.768188 20 21 13
20.149891 62.661072 1153.729004 20 16 7
20.166901 58.389088 1153.689819 21 15 8
20.183912 54.117107 1153.650635 20 13 9
20.200924 49.845123 1153.611450 20 14 7
20.217936 45.573139 1153.572144 20 14 5
20.234945 41.301159 1153.532959 20 14 11
20.251957 37.029179 1153.493774 24 18 18
30.683969 33.125851 1138.241455 28 19 14
30.701078 28.822550 1138.202026 25 21 10
30.718235 24.519310 1138.162476 22 19 18
20.320051 19.941189 1153.336914 21 17 26
20.337061 15.669207 1153.297729 21 16 24
20.354073 11.397224 1153.258545 22 16 23
20.371084 7.125303 1153.219360 24 15 22
20.388096 2.853260 1153.180176 27 21 22
20.405106 -1.418784 1153.140991 30 22 24
20.422117 -5.690705 1153.101807 31 27 26
10.601604 -10.015704 1167.433228 32 27 23
10.618518 -14.258104 1167.394287 34 28 19
10.635384 -18.500626 1167.355347 37 27 32
10.652297 -22.743021 1167.316406 37 27 45
10.669211 -26.985544 1167.277466 38 32 30
20.524233 -31.322598 1152.866577 43 30 16
20.541245 -35.594639 1152.827393 49 32 17
20.558256 -39.866562 1152.788208 43 35 18
20.575266 -44.138603 1152.748901 37 32 22
10.753684 -48.197788 1167.082886 32 29 26
10.770598 -52.440304 1167.043823 27 26 21
10.787463 -56.682705 1167.005005 31 24 15
10.804378 -60.925224 1166.966064 35 29 24
10.821291 -65.167747 1166.927124 28 33 34
20.677382 -69.770500 1152.513672 21 37 40
20.694393 -74.042542 1152.474487 42 47 47
20.711405 -78.314461 1152.435303 64 52 59
20.728416 -82.586502 1152.396118 80 56 71
20.745426 -86.858429 1152.356934 97 66 75
20.762438 -91.130470 1152.317749 71 76 78
20.779449 -95.402390 1152.278564 46 38 59
20.796461 -99.674431 1152.239380 53 41 39
10.973372 -103.349838 1166.576660 60 50 42
10.990285 -107.592354 1166.537720 62 51 46
11.007151 -111.834747 1166.498901 64 54 55
11.024064 -116.077263 1166.459961 67 57 65
11.040978 -120.319672 1166.420898 71 61 53
11.057843 -124.562187 1166.382080 73 65 42
11.074758 -128.804718 1166.343140 76 64 67
20.932598 -133.850296 1151.925659 95 64 92
20.949610 -138.122330 1151.886475 115 82 86
20.966619 -142.394257 1151.847290 106 127 81
20.983631 -146.666306 1151.808105 98 126 91
21.000643 -150.938232 1151.768921 108 125 102
21.017702 -155.210266 1151.729614 119 111 101
21.034714 -159.482193 1151.690430 88 101 101
11.209924 -162.744400 1166.031738 58 28 69
11.226837 -166.986801 1165.992798 41 5 38
11.243752 -171.229309 1165.953735 25 9 40
1.418524 -174.373322 1180.296021 45 13 43
1.435292 -178.586304 1180.257446 65 55 51
1.452060 -182.799316 1180.218750 72 68 59
11.311310 -188.199158 1165.798096 80 75 60
11.328224 -192.441681 1165.759155 82 82 62
11.345138 -196.684082 1165.720215 84 83 65
11.362003 -200.926590 1165.681396 90 85 68
11.378918 -205.168991 1165.642334 97 82 70
11.395831 -209.411530 1165.603394 98 79 71
11.412697 -213.653931 1165.564575 100 71 74
-7.357163 -441.013947 1192.220337 119 120 114
-17.190266 -442.180023 1206.580688 120 98 99
-17.173740 -446.333954 1206.542603 100 91 83
-17.157166 -450.487762 1206.504517 80 54 65
-7.290528 -457.747620 1192.066772 57 44 48
-7.273858 -461.930969 1192.028442 35 20 27
-7.257186 -466.114410 1191.989990 51 4 7
85.026527 521.460388 1068.210083 15 9 13
85.044319 516.997375 1068.169067 23 17 19
74.059982 508.614868 1084.130005 22 13 25
74.077629 504.184875 1084.089355 22 14 25
74.095268 499.754883 1084.048706 22 14 26
74.112961 495.324860 1084.007935 23 16 20
74.130608 490.894836 1083.967285 24 17 15
74.148247 486.464844 1083.926636 26 19 10
74.165894 482.034851 1083.885986 22 17 5
74.183533 477.604828 1083.845337 18 14 7
63.198097 469.519318 1099.808838 16 12 10
63.215591 465.122192 1099.768555 14 11 7
63.233089 460.725220 1099.728271 15 11 4
63.250637 456.328186 1099.687866 17 11 11
63.268131 451.931213 1099.647461 17 10 18
63.285629 447.534149 1099.607178 17 5 15
63.303177 443.137146 1099.566772 19 8 12
63.320671 438.740112 1099.526489 21 11 21
63.338169 434.343109 1099.486206 19 10 30
63.355717 429.946106 1099.445679 17 10 20
63.373215 425.549072 1099.405396 16 10 10
63.390759 421.152069 1099.364990 15 10 13
63.408257 416.755035 1099.324707 14 8 17
53.000156 409.301270 1114.449951 13 6 10
53.017559 404.935516 1114.409790 13 6 4
53.034958 400.569702 1114.369751 14 6 6
53.052307 396.203918 1114.329834 12 7 9
53.069710 391.838196 1114.289673 10 8 6
53.087109 387.472443 1114.249634 11 5 3
63.530834 385.975861 1099.042236 13 4 2
63.548378 381.578857 1099.001831 12 6 1
63.565876 377.181824 1098.961548 11 9 1
63.583374 372.784851 1098.921265 11 9 2
53.174061 365.643677 1114.049316 11 9 2
53.191460 361.277893 1114.009155 11 8 3
53.208813 356.912140 1113.969238 11 7 2
53.226212 352.546356 1113.929077 12 8 2
53.243610 348.180603 1113.889038 14 9 2
53.261013 343.814819 1113.848999 13 9 2
53.278362 339.449066 1113.808960 12 9 3
53.295765 335.083313 1113.768921 6 9 4
53.313164 330.717529 1113.728760 1 1 3
53.330563 326.351776 1113.688721 49 2 2
53.347961 321.985992 1113.648682 96 88 68
53.365314 317.620239 1113.608643 135 121 135
42.954334 310.885406 1128.740356 173 149 151
42.971592 306.550934 1128.700684 169 148 168
42.988846 302.216431 1128.660889 166 148 163
43.006145 297.881927 1128.621094 167 147 158
43.023403 293.547424 1128.581299 169 152 164
43.040657 289.212921 1128.541504 177 156 171
43.057911 284.878418 1128.501831 185 166 166
43.075165 280.543915 1128.462036 128 162 162
43.092468 276.209381 1128.422119 70 79 88
43.109722 271.874878 1128.382446 40 1 14
43.126976 267.540375 1128.342651 9 7 24
43.144230 263.205872 1128.302979 18 18 34
43.161533 258.871368 1128.263062 27 17 24
43.178787 254.536865 1128.223267 28 17 14
43.196041 250.202377 1128.183594 29 17 11
32.783081 243.967667 1143.320068 32 21 9
32.800240 239.664459 1143.280518 35 25 8
32.817394 235.361206 1143.240967 35 24 7
32.834503 231.057953 1143.201538 36 21 23
32.851662 226.754730 1143.161987 32 30 39
22.437973 220.707565 1158.300171 28 26 26
32.885925 218.148239 1143.083008 31 25 14
32.903084 213.844940 1143.043579 35 24 10
32.920193 209.541687 1143.004150 34 24 7
32.937347 205.238449 1142.964600 34 17 4
32.954506 200.935226 1142.925049 35 22 1
32.971615 196.631989 1142.885620 37 26 12
43.420490 193.853821 1127.666504 36 27 23
43.437744 189.519318 1127.626709 35 29 29
43.454998 185.184845 1127.586914 37 29 35
43.472252 180.850342 1127.547241 39 30 37
33.057350 175.115768 1142.688110 35 18 39
33.074459 170.812531 1142.648682 32 22 28
43.524063 167.846832 1127.427856 30 31 17
43.541317 163.512344 1127.388062 28 30 36
43.558620 159.177826 1127.348267 29 28 55
43.575874 154.843338 1127.308472 30 25 38
33.160194 149.296265 1142.451172 28 21 21
33.177303 144.993027 1142.411743 26 19 17
33.194462 140.689774 1142.372192 23 20 14
33.211617 136.386536 1142.332764 20 18 13
33.228725 132.083313 1142.293335 19 16 12
33.245884 127.780067 1142.253784 19 14 12
33.263039 123.476822 1142.214233 23 15 12
33.280148 119.173584 1142.174805 27 16 13
22.863350 113.907906 1157.320190 30 26 14
22.880360 109.635918 1157.280884 32 28 26
22.897371 105.363937 1157.241699 30 26 39
22.914383 101.091957 1157.202515 28 26 31
22.931395 96.819969 1157.163330 31 23 23
13.093539 91.786621 1171.466675 33 21 27
13.110454 87.544106 1171.427734 34 22 32
13.127318 83.301643 1171.388794 35 25 29
22.999487 79.731979 1157.006470 33 30 26
23.016499 75.459999 1156.967285 31 29 24
23.033510 71.188011 1156.928101 28 26 23
23.050520 66.916039 1156.888916 25 26 18
23.067532 62.644054 1156.849731 21 19 14
23.084543 58.372070 1156.810547 17 14 11
23.101555 54.100094 1156.771362 19 14 9
23.118565 49.828110 1156.732178 20 15 5
23.135626 45.556126 1156.692871 20 14 1
23.152636 41.284145 1156.653687 20 14 4
23.169647 37.012161 1156.614502 22 15 7
23.186659 32.740181 1156.575317 25 16 9
23.203671 28.468138 1156.536133 23 16 12
23.220680 24.196156 1156.496948 21 17 28
23.237692 19.924173 1156.457642 21 16 44
23.254704 15.652190 1156.418457 21 16 33
23.271715 11.380208 1156.379272 21 16 23
23.288725 7.108287 1156.340088 22 17 26
23.305786 2.836244 1156.300781 25 19 29
23.322796 -1.435799 1156.261597 28 23 36
13.482220 -5.790081 1170.571167 30 26 44
13.499085 -10.032602 1170.532349 32 28 37
13.516000 -14.275002 1170.493408 33 27 30
13.532913 -18.517523 1170.454468 34 27 45
13.549779 -22.759920 1170.415527 35 29 60
13.566692 -27.002443 1170.376587 36 33 38
13.583607 -31.244841 1170.337646 40 30 17
13.600471 -35.487366 1170.298706 43 31 21
13.617386 -39.729759 1170.259766 41 35 25
13.634300 -43.972286 1170.220825 38 37 35
13.651165 -48.214687 1170.182007 35 33 45
13.668079 -52.457199 1170.142944 33 31 37
13.684993 -56.699604 1170.104004 34 25 30
13.701859 -60.942123 1170.065186 36 25 32
13.718773 -65.184647 1170.026245 34 28 34
23.595024 -69.787514 1155.634399 31 35 41
23.612036 -74.059555 1155.595215 46 46 49
23.629045 -78.331474 1155.556030 61 57 57
23.646057 -82.603516 1155.516846 72 56 65
23.663116 -86.875443 1155.477539 82 59 59
23.680128 -91.147484 1155.438354 66 48 53
13.837073 -94.881805 1169.753662 51 37 53
13.853938 -99.124329 1169.714844 55 40 53
13.870852 -103.366737 1169.675903 59 54 55
13.887766 -107.609253 1169.636841 59 50 57
13.904632 -111.851646 1169.598022 59 49 67
13.921546 -116.094162 1169.559082 62 49 77
13.938459 -120.336571 1169.520142 65 49 55
13.955374 -124.579086 1169.481079 72 57 34
13.972239 -128.821609 1169.442261 79 65 62
23.850288 -133.867310 1155.046387 86 62 90
23.867300 -138.139343 1155.007202 93 60 77
23.884312 -142.411270 1154.968018 90 49 65
23.901321 -146.683319 1154.928833 87 38 80
23.918333 -150.955246 1154.889648 98 97 96
23.935345 -155.227280 1154.850342 109 106 92
23.952356 -159.499207 1154.811157 83 101 89
14.107453 -162.761307 1169.130737 57 49 69
14.124319 -167.003708 1169.091919 47 49 49
14.141232 -171.246216 1169.052979 38 49 51
4.295845 -174.390106 1183.373535 50 43 54
4.312613 -178.603088 1183.334961 61 37 59
4.329381 -182.816086 1183.296265 67 48 65
14.208840 -188.216049 1168.897217 72 59 62
14.225705 -192.458572 1168.858276 77 76 59
14.242620 -196.700974 1168.819336 81 80 69
14.259533 -200.943481 1168.780396 90 83 79
14.276399 -205.185898 1168.741577 100 106 89
14.293312 -209.428436 1168.702515 104 111 99
14.310226 -213.670837 1168.663574 109 117 100
-5.383113 -219.309235 1197.310913 75 81 92
-5.366491 -223.492691 1197.272705 71 73 83
-5.349820 -227.676071 1197.234253 68 65 80
-5.333149 -231.859543 1197.195801 63 56 78
-5.316478 -236.042908 1197.157471 58 47 74
-5.299808 -240.226364 1197.119019 54 52 71
-4.516662 -436.847107 1195.314697 120 55 89
-4.499991 -441.030640 1195.276367 118 107 94
-4.483320 -445.213989 1195.237915 117 97 94
-4.466649 -449.397461 1195.199585 96 89 94
-4.450027 -453.580811 1195.161255 76 54 73
-4.433356 -457.764282 1195.122803 50 47 53
-4.416685 -461.947632 1195.084473 24 18 33
-4.400014 -466.131073 1195.046021 68 15 14
77.050240 517.457336 1087.447388 17 10 16
77.067879 513.027222 1087.406738 26 18 21
77.085526 508.597229 1087.366089 24 13 26
77.103218 504.167236 1087.325317 23 13 26
77.120857 499.737213 1087.284668 23 14 26
77.138504 495.307220 1087.244019 23 15 23
77.156143 490.877197 1087.203369 27 17 21
77.173790 486.447205 1087.162720 31 17 16
77.191429 482.017181 1087.122070 24 18 12
77.209076 477.587189 1087.081421 18 16 15
77.226715 473.157166 1087.040771 14 13 18
77.244362 468.727112 1087.000122 11 11 16
66.236107 460.707733 1102.940186 14 9 15
66.253601 456.310669 1102.899780 17 10 22
66.271149 451.913696 1102.859375 18 10 28
66.288651 447.516632 1102.819092 20 8 20
66.306145 443.119629 1102.778809 22 6 12
66.323692 438.722626 1102.738403 24 10 19
66.341187 434.325592 1102.697998 20 10 25
66.358688 429.928589 1102.657715 17 9 15
66.376228 425.531555 1102.617310 15 7 6
66.393730 421.134552 1102.577026 14 7 17
66.411224 416.737549 1102.536743 13 7 29
55.981792 409.283875 1117.639160 12 6 17
55.999191 404.918121 1117.598999 14 4 6
56.016590 400.552338 1117.558960 16 6 9
56.033993 396.186554 1117.518799 14 7 12
56.051342 391.820801 1117.478882 13 7 8
56.068745 387.455048 1117.438843 15 7 3
66.533852 385.958344 1102.254150 17 4 2
66.551346 381.561340 1102.213867 13 4 1
66.568848 377.164307 1102.173584 10 6 2
66.586395 372.767334 1102.133179 9 8 3
56.155693 365.626282 1117.238403 9 9 3
56.173096 361.260498 1117.198364 9 9 4
56.190495 356.894745 1117.158325 10 8 3
56.207848 352.528961 1117.118286 14 8 2
56.225246 348.163208 1117.078247 18 9 1
56.242645 343.797455 1117.038086 15 9 1
56.260044 339.431671 1116.998047 12 9 2
56.277447 335.065918 1116.958008 6 10 2
56.294796 330.700134 1116.917969 1 1 2
56.312199 326.334381 1116.877930 59 3 1
56.329597 321.968597 1116.837769 118 101 73
56.346996 317.602875 1116.797729 145 133 145
45.914635 310.868134 1131.906738 173 151 152
45.931889 306.533661 1131.866943 170 149 159
45.949192 302.199158 1131.827148 167 148 153
45.966446 297.864655 1131.787354 169 148 148
45.983700 293.530151 1131.747681 171 152 157
46.000954 289.195648 1131.707886 179 158 167
46.018208 284.861176 1131.668091 187 156 166
46.035511 280.526672 1131.628296 112 155 165
46.052765 276.192108 1131.588501 38 42 88
46.070019 271.857605 1131.548706 26 1 11
46.087273 267.523102 1131.509033 15 9 23
46.104576 263.188599 1131.469116 21 18 34
46.121830 258.854126 1131.429443 27 18 26
46.139084 254.519608 1131.389648 29 22 17
35.704937 248.253784 1146.502930 32 19 13
35.722046 243.950531 1146.463501 34 23 9
35.739204 239.647308 1146.423950 36 24 9
35.756359 235.344055 1146.384399 38 26 8
35.773468 231.040802 1146.344971 41 28 21
35.790627 226.737595 1146.305542 35 30 34
35.807781 222.434341 1146.265991 30 24 25
35.824890 218.131104 1146.226563 35 22 17
35.842049 213.827805 1146.187012 41 24 18
35.859203 209.524551 1146.147461 38 24 19
35.876312 205.221313 1146.108032 35 21 14
35.893471 200.918076 1146.068604 33 18 9
35.910580 196.614838 1146.029175 31 22 16
46.380791 193.836563 1130.832764 32 26 24
46.398045 189.502060 1130.793091 33 27 27
46.415298 185.167572 1130.753296 38 30 30
46.432602 180.833069 1130.713379 44 30 31
35.996315 175.098633 1145.831665 39 20 33
36.013424 170.795395 1145.792236 35 21 24
46.484364 167.829575 1130.594116 33 29 15
46.501667 163.495071 1130.554321 32 30 29
46.518921 159.160553 1130.514526 35 31 44
46.536175 154.826080 1130.474854 39 26 37
36.099159 149.279129 1145.594727 33 22 30
36.116268 144.975891 1145.555298 27 22 23
36.133423 140.672638 1145.515747 24 22 17
36.150581 136.369400 1145.476196 22 19 15
36.167690 132.066177 1145.436768 20 12 13
36.184845 127.762924 1145.397217 19 14 10
36.202003 123.459686 1145.357788 22 9 6
25.763968 118.162865 1160.479980 25 14 7
25.780979 113.890892 1160.440796 29 27 8
25.797989 109.618904 1160.401611 33 27 18
25.815001 105.346924 1160.362427 29 27 27
25.832012 101.074944 1160.323242 25 27 24
25.849024 96.802956 1160.284058 28 27 21
25.866034 92.530975 1160.244873 31 24 29
25.883095 88.258934 1160.205566 34 21 38
25.900105 83.986946 1160.166382 38 25 36
25.917116 79.714966 1160.127075 36 30 35
25.934128 75.442986 1160.087891 34 28 34
25.951139 71.170998 1160.048706 32 27 33
25.968149 66.899017 1160.009521 30 27 22
25.985161 62.627041 1159.970337 22 22 12
26.002172 58.355057 1159.931152 14 18 12
26.019184 54.083076 1159.891968 17 14 13
26.036194 49.811092 1159.852783 21 14 9
26.053205 45.539108 1159.813599 20 12 5
26.070265 41.267128 1159.774292 20 14 10
26.087276 36.995148 1159.735107 21 14 16
26.104288 32.723164 1159.695923 23 14 14
26.121300 28.451122 1159.656738 22 15 13
26.138309 24.179140 1159.617554 21 14 20
26.155321 19.907158 1159.578369 21 14 27
26.172333 15.635175 1159.539185 21 14 19
26.189344 11.363193 1159.500000 21 14 12
26.206354 7.091272 1159.460815 21 17 16
26.223366 2.819228 1159.421631 24 18 20
26.240425 -1.452815 1159.382324 27 21 24
26.257437 -5.724736 1159.343140 30 25 28
26.274448 -9.996778 1159.303833 33 26 28
26.291460 -14.268700 1159.264648 32 27 29
26.308470 -18.540745 1159.225464 31 28 39
26.325481 -22.812664 1159.186279 33 31 49
16.464161 -27.019341 1173.475586 35 32 37
16.481028 -31.261740 1173.436768 36 30 25
16.497940 -35.504265 1173.397827 38 32 26
16.514854 -39.746658 1173.358887 39 35 26
16.531719 -43.989182 1173.319946 40 35 30
16.548634 -48.231586 1173.281006 39 35 35
16.565548 -52.474098 1173.242065 39 33 33
16.582413 -56.716503 1173.203125 38 26 32
16.599327 -60.959023 1173.164185 38 25 33
16.616241 -65.201546 1173.125244 40 24 35
16.633106 -69.443939 1173.086426 42 31 41
16.650021 -73.686462 1173.047363 50 46 47
16.666935 -77.928871 1173.008423 59 51 55
16.683800 -82.171387 1172.969604 63 56 63
16.700714 -86.413780 1172.930664 68 55 59
16.717628 -90.656303 1172.891724 62 47 56
16.734493 -94.898705 1172.852783 56 43 52
16.751408 -99.141228 1172.813843 57 40 49
16.768322 -103.383636 1172.774902 58 44 47
16.785187 -107.626152 1172.735962 56 49 45
16.802101 -111.868546 1172.697021 54 49 54
16.819014 -116.111061 1172.658081 56 50 64
16.835880 -120.353462 1172.619263 59 47 48
16.852795 -124.595985 1172.580322 70 44 32
16.869707 -128.838501 1172.541260 82 74 62
26.767870 -133.884323 1158.167114 76 89 93
26.784929 -138.156357 1158.127808 71 53 69
26.801941 -142.428284 1158.088623 73 41 46
26.818951 -146.700333 1158.049438 76 41 53
26.835962 -150.972260 1158.010254 88 69 61
26.852974 -155.244293 1157.971069 100 91 64
26.869986 -159.516220 1157.931885 78 102 68
17.004873 -162.778198 1172.229858 56 48 60
17.021788 -167.020599 1172.190918 54 41 53
17.038702 -171.263107 1172.151978 52 42 52
7.173104 -174.406891 1186.451172 55 44 50
7.189872 -178.619873 1186.412476 58 43 53
7.206689 -182.832870 1186.373779 61 43 55
7.223457 -187.045746 1186.335083 65 49 57
7.240225 -191.258759 1186.296509 72 70 58
7.256993 -195.471634 1186.257813 79 75 66
17.156954 -200.960388 1171.879517 91 81 74
17.173868 -205.202789 1171.840576 103 93 74
17.190781 -209.445328 1171.801636 111 105 75
17.207647 -213.687729 1171.762695 119 107 73
17.224560 -217.930222 1171.723755 109 110 72
-2.526015 -219.325897 1200.366821 100 74 76
-2.509344 -223.509354 1200.328491 89 82 80
-2.492721 -227.692734 1200.290161 79 81 82
-2.476050 -231.876205 1200.251709 71 80 85
7.424821 -237.600998 1185.871216 64 62 70
7.441589 -241.814026 1185.832520 56 44 56
17.393555 -260.354828 1171.334473 56 53 52
17.410419 -264.597351 1171.295532 54 50 50
17.427334 -268.839752 1171.256592 51 48 49
17.444248 -273.082275 1171.217651 49 38 38
17.461113 -277.324677 1171.178833 25 19 28
-1.676234 -432.680420 1198.409058 120 83 91
-1.659563 -436.863770 1198.370728 121 88 92
-1.642892 -441.047302 1198.332275 117 94 94
-1.626221 -445.230652 1198.293823 114 90 70
-1.609550 -449.414124 1198.255493 93 87 47
-1.592879 -453.597473 1198.217041 73 54 51
-1.576257 -457.780945 1198.178711 43 51 56
-1.559586 -461.964294 1198.140381 13 9 31
-1.542915 -466.147736 1198.101929 86 26 7
80.075836 517.439697 1090.683472 18 11 19
91.140488 516.961792 1074.689575 28 19 23
91.158279 512.498840 1074.648560 25 18 27
91.176018 508.035797 1074.607666 23 17 27
91.193810 503.572784 1074.566650 21 15 27
91.211594 499.109802 1074.525757 20 13 27
80.181694 490.859558 1090.439575 24 17 27
80.199341 486.429565 1090.398926 28 17 23
80.216980 481.999542 1090.358276 24 17 20
80.234627 477.569550 1090.317627 20 19 23
80.252266 473.139526 1090.276978 17 15 26
80.269958 468.709473 1090.236206 14 12 26
69.239197 460.690216 1106.152222 16 12 27
69.256699 456.293152 1106.111816 19 12 33
69.274193 451.896179 1106.071533 19 11 39
69.291740 447.499115 1106.031128 19 12 26
69.309235 443.102112 1105.990845 19 10 13
69.326736 438.705109 1105.950439 20 9 17
69.344276 434.308075 1105.910034 18 8 21
69.361778 429.911072 1105.869751 15 8 11
69.379272 425.514038 1105.829468 14 8 2
69.396820 421.117065 1105.789063 14 12 21
69.414314 416.720032 1105.748657 13 9 41
69.431816 412.322998 1105.708374 13 7 25
69.449356 407.925995 1105.667969 13 6 9
69.466858 403.528931 1105.627686 14 6 12
69.484352 399.131897 1105.587402 13 8 16
69.501900 394.734894 1105.546875 13 9 10
69.519394 390.337860 1105.506592 13 7 4
69.536896 385.940826 1105.466309 14 5 2
69.554443 381.543823 1105.425903 12 5 1
69.571938 377.146820 1105.385620 10 5 2
69.589432 372.749817 1105.345215 11 7 4
59.137390 365.608887 1120.427612 13 9 4
59.154789 361.243103 1120.387573 11 7 5
59.172192 356.877350 1120.347412 10 5 3
59.189541 352.511566 1120.307495 13 8 2
59.206940 348.145844 1120.267456 16 9 1
59.224342 343.780060 1120.227295 14 9 1
48.771435 336.857910 1135.311768 12 7 1
48.788689 332.523407 1135.272095 6 9 1
48.805992 328.188904 1135.232178 1 1 1
48.823246 323.854401 1135.192383 67 3 1
48.840500 319.519897 1135.152710 134 115 78
48.857754 315.185394 1135.112915 152 143 155
48.875057 310.850861 1135.073120 171 153 152
48.892311 306.516388 1135.033325 169 147 150
48.909565 302.181885 1134.993530 167 143 144
48.926819 297.847412 1134.953857 169 149 138
48.944073 293.512909 1134.914063 172 153 150
48.961376 289.178406 1134.874146 179 159 163
48.978630 284.843903 1134.834473 187 173 166
48.995884 280.509399 1134.794678 103 143 169
49.013138 276.174835 1134.755005 19 5 89
49.030392 271.840332 1134.715210 21 1 9
49.047695 267.505829 1134.675293 23 12 22
49.064949 263.171326 1134.635620 25 17 35
49.082203 258.836853 1134.595825 26 20 28
49.099457 254.502335 1134.556030 27 20 21
38.643913 248.236649 1149.646484 28 16 15
38.661072 243.933395 1149.606934 31 22 10
38.678226 239.630173 1149.567505 34 31 10
38.695335 235.326920 1149.528076 35 27 10
38.712494 231.023666 1149.488525 37 27 19
38.729649 226.720444 1149.448975 33 28 29
38.746758 222.417191 1149.409546 30 22 25
38.763916 218.113968 1149.369995 33 23 21
38.781075 213.810669 1149.330566 36 24 26
38.798180 209.507416 1149.291138 35 25 32
38.815338 205.204178 1149.251587 34 27 24
38.832447 200.900940 1149.212158 33 19 17
38.849602 196.597702 1149.172607 32 19 21
38.866760 192.294449 1149.133057 32 25 26
38.883869 187.991211 1149.093628 33 26 25
38.901028 183.687973 1149.054199 36 29 25
38.918182 179.384735 1149.014648 39 31 26
38.935291 175.081497 1148.975220 35 23 27
38.952450 170.778259 1148.935669 31 21 20
38.969604 166.475006 1148.896118 32 27 14
38.986713 162.171768 1148.856689 33 34 23
