# .PCD v0.7 - Point Cloud Data file format
VERSION 0.7
FIELDS x y z r g b
SIZE 4 4 4 1 1 1
TYPE F F F I I I
COUNT 1 1 1 1 1 1
WIDTH 1076
HEIGHT 1
VIEWPOINT 0 0 0 1 0 0 0
POINTS 1076
DATA ascii
248.068924 -130.562637 1074.000000 51 45 50
249.235992 -130.197937 1071.000000 56 52 55
250.392593 -129.833237 1068.000000 61 54 60
251.302643 -129.346954 1064.000000 66 59 73
253.150436 -129.346954 1064.000000 73 64 87
254.998215 -129.346954 1064.000000 81 75 80
255.397690 -128.617554 1058.000000 83 86 73
256.505676 -128.252853 1055.000000 85 80 83
257.603271 -127.888161 1052.000000 78 79 94
257.703979 -127.037201 1045.000000 71 78 90
259.518768 -127.037201 1045.000000 76 78 86
257.582428 -125.213699 1030.000000 81 77 83
258.363892 -124.727432 1026.000000 82 76 80
258.624420 -123.998039 1020.000000 84 74 76
260.395813 -123.998039 1020.000000 82 72 71
261.396118 -123.633339 1017.000000 80 74 73
262.386047 -123.268639 1014.000000 79 67 75
264.147003 -123.268639 1014.000000 78 66 79
265.121307 -122.903938 1011.000000 81 66 84
266.085114 -122.539238 1008.000000 85 76 89
267.304230 -122.296097 1006.000000 86 79 94
269.051361 -122.296097 1006.000000 88 82 89
269.990875 -121.931396 1003.000000 85 87 83
271.732788 -121.931396 1003.000000 83 82 75
285.744202 -127.401901 1048.000000 81 65 68
288.661774 -127.888161 1052.000000 80 64 64
293.802338 -129.346954 1064.000000 78 64 60
295.650116 -129.346954 1064.000000 77 68 68
297.497986 -129.346954 1064.000000 79 76 76
300.471130 -129.833237 1068.000000 82 74 71
304.024323 -130.562637 1074.000000 85 80 66
305.889526 -130.562637 1074.000000 89 82 71
307.754700 -130.562637 1074.000000 89 84 76
310.773071 -131.048904 1078.000000 89 73 66
312.645172 -131.048904 1078.000000 84 62 57
314.517242 -131.048904 1078.000000 79 62 58
317.269928 -131.413605 1081.000000 77 63 60
319.147217 -131.413605 1081.000000 76 62 71
322.212463 -131.899857 1085.000000 76 61 82
324.096741 -131.899857 1085.000000 77 60 85
328.985443 -133.115540 1095.000000 79 60 89
330.887115 -133.115540 1095.000000 81 50 104
332.788757 -133.115540 1095.000000 108 129 119
22.173773 -131.194748 1064.000000 133 132 132
24.021559 -131.194748 1064.000000 124 126 124
25.869413 -131.194748 1064.000000 115 121 105
27.717199 -131.194748 1064.000000 109 95 86
29.481695 -130.824844 1061.000000 102 93 87
31.147131 -130.085022 1055.000000 98 90 88
32.979286 -130.085022 1055.000000 93 87 85
34.580536 -129.221893 1048.000000 89 81 82
36.296333 -128.851990 1045.000000 85 76 76
37.892368 -128.112167 1039.000000 82 69 71
39.696739 -128.112167 1039.000000 80 68 64
41.381279 -127.742256 1036.000000 78 70 58
43.180508 -127.742256 1036.000000 76 62 50
44.979668 -127.742256 1036.000000 76 67 42
46.778893 -127.742256 1036.000000 76 67 56
48.718723 -128.112167 1039.000000 77 67 71
50.523090 -128.112167 1039.000000 78 67 73
52.327530 -128.112167 1039.000000 79 66 76
54.288200 -128.482086 1042.000000 80 66 84
56.097847 -128.482086 1042.000000 82 76 92
58.074146 -128.851990 1045.000000 85 78 91
60.060863 -129.221893 1048.000000 89 80 91
62.117119 -129.715103 1052.000000 92 80 85
63.944065 -129.715103 1052.000000 89 80 80
65.771080 -129.715103 1052.000000 86 81 77
67.790794 -130.085022 1055.000000 84 80 74
69.622955 -130.085022 1055.000000 83 79 77
71.658371 -130.454926 1058.000000 83 78 80
73.495735 -130.454926 1058.000000 83 77 81
75.546776 -130.824844 1061.000000 83 76 83
77.608170 -131.194748 1064.000000 84 76 79
79.455956 -131.194748 1064.000000 82 77 76
81.609467 -131.687958 1068.000000 80 72 70
83.698647 -132.057877 1071.000000 78 70 65
85.798317 -132.427780 1074.000000 77 68 69
87.663475 -132.427780 1074.000000 74 65 74
89.862068 -132.921005 1078.000000 71 67 74
91.734230 -132.921005 1078.000000 69 64 74
93.866829 -133.290909 1081.000000 67 62 73
95.744209 -133.290909 1081.000000 65 59 73
97.982750 -133.784119 1085.000000 63 57 72
100.143135 -134.154037 1088.000000 61 54 71
102.314011 -134.523941 1091.000000 58 53 63
104.590752 -135.017166 1095.000000 56 48 56
106.492439 -135.017166 1095.000000 55 47 49
108.691040 -135.387070 1098.000000 52 48 43
111.000771 -135.880280 1102.000000 50 49 46
112.914619 -135.880280 1102.000000 51 49 50
115.140999 -136.250183 1105.000000 53 47 54
117.483803 -136.743408 1109.000000 51 48 59
120.163452 -137.606522 1116.000000 49 49 64
122.539185 -138.099731 1120.000000 52 49 69
124.817734 -138.469650 1123.000000 54 49 73
127.671051 -139.456085 1131.000000 60 49 78
129.635269 -139.456085 1131.000000 66 63 47
131.948471 -139.825974 1134.000000 36 20 17
133.917831 -139.825974 1134.000000 7 1 80
135.887238 -139.825974 1134.000000 95 182 144
171.391678 -171.391632 1390.000000 202 211 220
173.805618 -171.391632 1390.000000 220 202 212
176.219543 -171.391632 1390.000000 213 201 204
178.633560 -171.391632 1390.000000 207 200 203
181.047501 -171.391632 1390.000000 206 201 203
182.009674 -170.035309 1379.000000 206 202 203
183.735870 -169.418793 1374.000000 201 187 204
186.122025 -169.418793 1374.000000 197 184 181
186.313110 -167.445938 1358.000000 200 174 158
184.225601 -163.500229 1326.000000 204 204 147
185.121765 -162.267197 1316.000000 166 102 137
187.407196 -162.267197 1316.000000 127 101 143
188.971893 -161.650681 1311.000000 135 127 150
191.248718 -161.650681 1311.000000 144 134 146
193.525452 -161.650681 1311.000000 146 133 142
195.055496 -161.034164 1306.000000 149 134 147
198.079010 -161.650681 1311.000000 151 139 152
200.355743 -161.650681 1311.000000 154 141 152
202.632568 -161.650681 1311.000000 155 138 152
204.909302 -161.650681 1311.000000 156 143 153
207.186111 -161.650681 1311.000000 157 145 155
209.462860 -161.650681 1311.000000 157 147 157
211.739578 -161.650681 1311.000000 159 148 160
213.200180 -161.034164 1306.000000 162 149 160
215.468231 -161.034164 1306.000000 163 150 161
217.736359 -161.034164 1306.000000 164 152 163
220.004425 -161.034164 1306.000000 160 148 166
223.123428 -161.650681 1311.000000 156 145 171
225.400269 -161.650681 1311.000000 160 150 177
227.677002 -161.650681 1311.000000 165 153 179
229.953812 -161.650681 1311.000000 169 155 182
232.230560 -161.650681 1311.000000 174 168 175
234.507278 -161.650681 1311.000000 173 172 168
235.881042 -161.034164 1306.000000 173 193 111
238.149094 -161.034164 1306.000000 90 1 54
211.466965 -140.319199 1138.000000 34 54 38
213.443268 -140.319199 1138.000000 62 57 34
215.419647 -140.319199 1138.000000 56 45 30
217.395935 -140.319199 1138.000000 50 37 28
219.372299 -140.319199 1138.000000 45 31 27
219.987061 -139.456085 1131.000000 41 25 22
220.381256 -138.469650 1123.000000 36 24 18
221.737625 -138.099731 1120.000000 31 22 13
222.284653 -137.236618 1113.000000 29 20 9
224.217606 -137.236618 1113.000000 28 18 11
225.337723 -136.743408 1109.000000 26 17 13
226.443939 -136.250183 1105.000000 24 17 8
228.363007 -136.250183 1105.000000 21 17 4
229.656799 -135.880280 1102.000000 18 17 12
230.730103 -135.387070 1098.000000 22 21 20
232.636932 -135.387070 1098.000000 25 25 23
233.902924 -135.017166 1095.000000 26 28 26
235.804626 -135.017166 1095.000000 27 30 32
236.837906 -134.523941 1091.000000 30 30 39
238.732666 -134.523941 1091.000000 34 30 41
239.965652 -134.154037 1088.000000 36 23 44
241.188248 -133.784119 1085.000000 39 28 42
243.072586 -133.784119 1085.000000 42 34 41
244.053757 -133.290909 1081.000000 44 41 49
245.248642 -132.921005 1078.000000 50 45 57
246.203766 -132.427780 1074.000000 55 49 59
247.375992 -132.057877 1071.000000 59 51 62
248.537857 -131.687958 1068.000000 64 53 63
250.392593 -131.687958 1068.000000 71 64 65
251.302643 -131.194748 1064.000000 78 75 80
252.436676 -130.824844 1061.000000 79 77 95
254.279236 -130.824844 1061.000000 81 79 85
254.673508 -130.085022 1055.000000 82 80 76
255.776260 -129.715103 1052.000000 82 81 80
255.154572 -128.482086 1042.000000 78 79 84
254.744690 -127.372353 1033.000000 74 76 85
255.793610 -127.002434 1030.000000 77 76 86
256.582092 -126.509232 1026.000000 80 77 78
258.363892 -126.509232 1026.000000 80 76 71
258.624420 -125.769409 1020.000000 80 72 68
260.395813 -125.769409 1020.000000 79 72 65
261.396118 -125.399498 1017.000000 78 73 64
262.386047 -125.029579 1014.000000 78 73 63
264.147003 -125.029579 1014.000000 79 74 72
265.121307 -124.659676 1011.000000 83 74 82
266.085114 -124.289764 1008.000000 88 74 89
267.304230 -124.043152 1006.000000 86 81 97
269.051361 -124.043152 1006.000000 85 85 88
269.990875 -123.673248 1003.000000 82 81 80
283.111420 -128.851990 1045.000000 79 77 75
285.744202 -129.221893 1048.000000 79 66 71
288.661774 -129.715103 1052.000000 78 69 54
290.488770 -129.715103 1052.000000 79 69 37
293.149323 -130.085022 1055.000000 80 69 59
295.820374 -130.454926 1058.000000 83 71 82
299.345764 -131.194748 1064.000000 87 74 74
302.325836 -131.687958 1068.000000 92 88 67
305.035126 -132.057877 1071.000000 97 99 71
307.754700 -132.427780 1074.000000 99 95 76
309.619904 -132.427780 1074.000000 101 91 60
312.645172 -132.921005 1078.000000 91 75 45
314.517242 -132.921005 1078.000000 82 59 46
317.269928 -133.290909 1081.000000 75 58 48
319.147217 -133.290909 1081.000000 68 57 66
322.212463 -133.784119 1085.000000 72 59 85
324.096741 -133.784119 1085.000000 76 62 91
328.985443 -135.017166 1095.000000 82 47 98
330.887115 -135.017166 1095.000000 88 33 111
332.788757 -135.017166 1095.000000 114 142 124
22.319654 -133.917877 1071.000000 127 134 125
24.179596 -133.917877 1071.000000 115 100 109
25.869413 -133.042587 1064.000000 103 99 95
27.639050 -132.667465 1061.000000 99 98 82
29.398335 -132.292358 1058.000000 96 90 82
31.147131 -131.917221 1055.000000 92 81 83
32.885506 -131.542099 1052.000000 88 74 82
34.580536 -131.041946 1048.000000 83 68 81
36.296333 -130.666824 1045.000000 79 68 75
38.001781 -130.291702 1042.000000 78 68 68
39.696739 -129.916595 1039.000000 78 67 63
41.501110 -129.916595 1039.000000 75 72 59
43.180508 -129.541473 1036.000000 73 67 56
45.109917 -129.916595 1039.000000 73 67 53
46.914352 -129.916595 1039.000000 74 67 66
48.718723 -129.916595 1039.000000 76 68 80
50.668972 -130.291702 1042.000000 79 67 77
52.478619 -130.291702 1042.000000 79 70 75
54.288200 -130.291702 1042.000000 79 64 79
56.097847 -130.291702 1042.000000 81 74 84
58.240868 -131.041946 1048.000000 83 77 84
60.060863 -131.041946 1048.000000 84 80 85
62.117119 -131.542099 1052.000000 86 79 80
63.944065 -131.542099 1052.000000 85 78 75
65.958641 -131.917221 1055.000000 84 77 71
67.790794 -131.917221 1055.000000 82 77 68
69.622955 -131.917221 1055.000000 81 77 73
71.658371 -132.292358 1058.000000 81 77 78
73.495735 -132.292358 1058.000000 82 75 80
75.546776 -132.667465 1061.000000 82 74 82
77.608170 -133.042587 1064.000000 83 75 78
79.455956 -133.042587 1064.000000 81 76 74
81.609467 -133.542755 1068.000000 80 69 69
83.698647 -133.917877 1071.000000 78 67 64
85.798317 -134.292984 1074.000000 76 66 66
87.663475 -134.292984 1074.000000 73 65 69
89.862068 -134.793152 1078.000000 70 64 70
91.734230 -134.793152 1078.000000 67 64 71
93.866829 -135.168274 1081.000000 65 60 69
95.744209 -135.168274 1081.000000 63 56 68
97.982750 -135.668442 1085.000000 62 55 66
100.143135 -136.043549 1088.000000 60 54 65
102.314011 -136.418671 1091.000000 58 51 58
104.590752 -136.918839 1095.000000 54 49 51
106.492439 -136.918839 1095.000000 51 46 46
108.691040 -137.293961 1098.000000 48 45 41
110.597862 -137.293961 1098.000000 45 47 41
112.914619 -137.794098 1102.000000 48 49 42
115.140999 -138.169235 1105.000000 52 46 48
117.060059 -138.169235 1105.000000 49 46 54
119.840439 -139.169556 1113.000000 46 45 58
122.101547 -139.544678 1116.000000 47 44 62
124.484299 -140.044830 1120.000000 49 44 66
127.671051 -141.420273 1131.000000 56 44 70
129.635269 -141.420273 1131.000000 63 61 39
131.948471 -141.795395 1134.000000 34 1 9
133.917831 -141.795395 1134.000000 6 1 104
135.887238 -141.795395 1134.000000 130 254 199
171.391678 -173.805634 1390.000000 240 252 237
173.805618 -173.805634 1390.000000 227 212 218
176.219543 -173.805634 1390.000000 216 189 200
178.633560 -173.805634 1390.000000 205 196 201
180.396240 -173.180435 1385.000000 205 201 202
182.009674 -172.430206 1379.000000 206 201 202
183.735870 -171.804993 1374.000000 201 187 202
185.309265 -171.054749 1368.000000 196 189 178
186.313110 -169.804352 1358.000000 199 167 154
184.920258 -166.428284 1331.000000 202 203 146
185.825104 -165.177872 1321.000000 166 106 138
187.407196 -164.552673 1316.000000 131 115 141
188.971893 -163.927475 1311.000000 138 124 145
191.248718 -163.927475 1311.000000 145 132 138
193.525452 -163.927475 1311.000000 147 133 132
195.055496 -163.302277 1306.000000 150 136 144
197.323563 -163.302277 1306.000000 152 139 157
199.591599 -163.302277 1306.000000 155 139 155
201.859756 -163.302277 1306.000000 156 139 153
204.909302 -163.927475 1311.000000 158 146 155
207.186111 -163.927475 1311.000000 159 148 157
209.462860 -163.927475 1311.000000 160 147 159
211.739578 -163.927475 1311.000000 161 149 161
214.016418 -163.927475 1311.000000 163 149 162
215.468231 -163.302277 1306.000000 163 150 162
217.736359 -163.302277 1306.000000 164 150 161
220.004425 -163.302277 1306.000000 161 145 160
223.123428 -163.927475 1311.000000 159 146 166
225.400269 -163.927475 1311.000000 162 148 172
227.677002 -163.927475 1311.000000 165 154 175
229.953812 -163.927475 1311.000000 171 155 177
232.230560 -163.927475 1311.000000 178 164 173
234.507278 -163.927475 1311.000000 172 178 169
235.881042 -163.302277 1306.000000 167 192 101
238.149094 -163.302277 1306.000000 85 1 34
211.466965 -142.295547 1138.000000 37 59 50
213.443268 -142.295547 1138.000000 71 57 42
215.419647 -142.295547 1138.000000 61 46 35
217.395935 -142.295547 1138.000000 51 39 34
219.372299 -142.295547 1138.000000 46 31 33
220.570572 -141.795395 1134.000000 41 25 28
220.381256 -140.419952 1123.000000 36 26 23
221.737625 -140.044830 1120.000000 31 21 20
222.883789 -139.544678 1116.000000 28 21 17
224.217606 -139.169556 1113.000000 26 21 16
225.337723 -138.669388 1109.000000 26 21 16
227.263657 -138.669388 1109.000000 26 21 11
228.363007 -138.169235 1105.000000 23 21 7
230.281998 -138.169235 1105.000000 21 21 14
231.570633 -137.794098 1102.000000 25 21 22
232.636932 -137.293961 1098.000000 30 25 27
233.902924 -136.918839 1095.000000 29 29 32
235.804626 -136.918839 1095.000000 29 27 34
236.837906 -136.418671 1091.000000 33 26 37
238.732666 -136.418671 1091.000000 37 25 42
239.965652 -136.043549 1088.000000 41 24 47
241.188248 -135.668442 1085.000000 46 36 48
243.072586 -135.668442 1085.000000 48 49 49
244.053757 -135.168274 1081.000000 50 52 53
245.248642 -134.793152 1078.000000 57 55 56
246.203766 -134.292984 1074.000000 64 60 61
247.375992 -133.917877 1071.000000 68 65 66
248.537857 -133.542755 1068.000000 72 72 66
249.454788 -133.042587 1064.000000 81 79 67
250.594086 -132.667465 1061.000000 90 77 77
252.436676 -132.667465 1061.000000 86 76 87
252.122314 -131.542099 1052.000000 82 76 82
253.949326 -131.542099 1052.000000 81 73 76
254.803726 -131.041946 1048.000000 80 76 79
254.419968 -129.916595 1039.000000 79 80 82
254.004883 -128.791229 1030.000000 78 74 83
254.800232 -128.291077 1026.000000 78 76 83
255.831848 -127.915955 1023.000000 79 76 78
256.852997 -127.540825 1020.000000 78 76 74
258.624420 -127.540825 1020.000000 77 72 72
259.629944 -127.165703 1017.000000 76 69 70
261.396118 -127.165703 1017.000000 76 71 69
262.386047 -126.790588 1014.000000 78 73 68
264.147003 -126.790588 1014.000000 80 74 73
265.121307 -126.415474 1011.000000 85 76 78
266.085114 -126.040352 1008.000000 91 73 84
267.304230 -125.790268 1006.000000 86 84 91
269.051361 -125.790268 1006.000000 82 78 86
270.798431 -125.790268 1006.000000 79 69 82
283.111420 -130.666824 1045.000000 76 68 77
285.744202 -131.041946 1048.000000 76 68 71
287.564178 -131.041946 1048.000000 77 69 64
289.384247 -131.041946 1048.000000 80 67 57
292.315735 -131.542099 1052.000000 84 68 73
294.981537 -131.917221 1055.000000 88 70 90
297.657745 -132.292358 1058.000000 92 79 86
301.193542 -133.042587 1064.000000 98 97 81
305.035126 -133.917877 1071.000000 105 102 86
307.754700 -134.292984 1074.000000 109 107 91
309.619904 -134.292984 1074.000000 113 97 83
312.645172 -134.793152 1078.000000 99 88 75
314.517242 -134.793152 1078.000000 85 73 72
317.269928 -135.168274 1081.000000 72 40 70
319.147217 -135.168274 1081.000000 60 57 80
321.024597 -135.168274 1081.000000 68 56 91
324.096741 -135.668442 1085.000000 76 57 95
328.985443 -136.918839 1095.000000 85 91 99
330.887115 -136.918839 1095.000000 95 38 113
332.788757 -136.918839 1095.000000 121 156 127
20.593435 -136.665298 1078.000000 119 124 140
22.319654 -135.777863 1071.000000 117 136 117
24.179596 -135.777863 1071.000000 106 83 95
25.869413 -134.890427 1064.000000 96 85 86
27.639050 -134.510101 1061.000000 93 86 78
29.398335 -134.129776 1058.000000 91 88 78
31.147131 -133.749435 1055.000000 87 75 78
32.885506 -133.369110 1052.000000 84 67 79
34.580536 -132.862000 1048.000000 81 66 81
36.296333 -132.481674 1045.000000 78 65 73
38.001781 -132.101334 1042.000000 77 66 66
39.696739 -131.721008 1039.000000 76 67 63
41.501110 -131.721008 1039.000000 74 67 60
43.305546 -131.721008 1039.000000 72 67 62
45.109917 -131.721008 1039.000000 72 67 65
46.914352 -131.721008 1039.000000 73 65 77
48.859394 -132.101334 1042.000000 74 65 89
50.668972 -132.101334 1042.000000 75 65 81
52.478619 -132.101334 1042.000000 74 64 74
54.288200 -132.101334 1042.000000 74 63 75
56.097847 -132.101334 1042.000000 74 67 76
58.240868 -132.862000 1048.000000 75 71 77
60.290104 -133.369110 1052.000000 77 72 79
62.117119 -133.369110 1052.000000 78 73 74
63.944065 -133.369110 1052.000000 77 70 70
65.958641 -133.749435 1055.000000 76 68 66
67.790794 -133.749435 1055.000000 75 66 62
69.820930 -134.129776 1058.000000 74 65 69
71.658371 -134.129776 1058.000000 75 66 77
73.704132 -134.510101 1061.000000 77 68 79
75.760384 -134.890427 1064.000000 76 67 81
77.608170 -134.890427 1064.000000 76 67 76
79.455956 -134.890427 1064.000000 75 66 72
81.609467 -135.397537 1068.000000 74 66 67
83.464195 -135.397537 1068.000000 72 64 63
85.558662 -135.777863 1071.000000 70 63 64
87.663475 -136.158203 1074.000000 69 61 65
89.862068 -136.665298 1078.000000 69 58 66
91.734230 -136.665298 1078.000000 67 58 68
93.866829 -137.045624 1081.000000 65 58 66
95.744209 -137.045624 1081.000000 63 55 64
97.982750 -137.552734 1085.000000 62 54 61
100.143135 -137.933075 1088.000000 59 54 59
102.314011 -138.313400 1091.000000 56 50 53
104.590752 -138.820511 1095.000000 53 48 47
106.492439 -138.820511 1095.000000 50 45 43
108.691040 -139.200836 1098.000000 47 44 40
110.597862 -139.200836 1098.000000 44 43 37
112.914619 -139.707947 1102.000000 47 43 34
115.140999 -140.088272 1105.000000 50 44 42
117.060059 -140.088272 1105.000000 47 43 50
119.409737 -140.595383 1109.000000 45 42 53
122.101547 -141.482819 1116.000000 46 43 56
124.817734 -142.370255 1123.000000 48 47 59
127.671051 -143.384460 1131.000000 55 42 62
129.635269 -143.384460 1131.000000 63 59 31
131.948471 -143.764801 1134.000000 33 1 1
133.917831 -143.764801 1134.000000 3 1 127
135.887238 -143.764801 1134.000000 128 252 254
171.391678 -176.219635 1390.000000 239 253 254
173.805618 -176.219635 1390.000000 224 222 225
176.219543 -176.219635 1390.000000 214 183 196
178.633560 -176.219635 1390.000000 204 193 199
180.396240 -175.585754 1385.000000 204 198 202
181.349731 -174.191208 1374.000000 205 200 201
183.735870 -174.191208 1374.000000 200 186 200
185.309265 -173.430542 1368.000000 195 194 175
186.313110 -172.162781 1358.000000 197 168 151
184.920258 -168.739807 1331.000000 200 202 145
186.528473 -168.105927 1326.000000 166 96 140
188.119217 -167.472031 1321.000000 132 121 140
189.692596 -166.838165 1316.000000 139 127 140
191.248718 -166.204269 1311.000000 146 130 131
193.525452 -166.204269 1311.000000 148 133 122
195.802261 -166.204269 1311.000000 150 140 142
198.079010 -166.204269 1311.000000 153 141 162
200.355743 -166.204269 1311.000000 155 143 158
202.632568 -166.204269 1311.000000 157 146 155
204.909302 -166.204269 1311.000000 159 149 157
207.186111 -166.204269 1311.000000 160 148 160
209.462860 -166.204269 1311.000000 162 147 161
211.739578 -166.204269 1311.000000 163 148 163
214.016418 -166.204269 1311.000000 165 149 163
216.293152 -166.204269 1311.000000 164 150 164
218.569962 -166.204269 1311.000000 164 148 159
220.846710 -166.204269 1311.000000 161 143 155
223.123428 -166.204269 1311.000000 158 139 161
225.400269 -166.204269 1311.000000 161 148 168
227.677002 -166.204269 1311.000000 164 156 170
229.953812 -166.204269 1311.000000 173 155 173
232.230560 -166.204269 1311.000000 182 161 171
234.507278 -166.204269 1311.000000 171 173 170
236.784119 -166.204269 1311.000000 161 191 92
239.060852 -166.204269 1311.000000 83 1 14
213.443268 -144.271912 1138.000000 63 57 51
215.419647 -144.271912 1138.000000 57 49 40
217.395935 -144.271912 1138.000000 51 42 39
219.372299 -144.271912 1138.000000 46 29 39
220.570572 -143.764801 1134.000000 41 20 33
220.381256 -142.370255 1123.000000 34 20 28
221.737625 -141.989929 1120.000000 28 21 26
222.883789 -141.482819 1116.000000 24 19 25
224.217606 -141.102478 1113.000000 21 16 22
226.150482 -141.102478 1113.000000 23 19 20
227.263657 -140.595383 1109.000000 26 21 15
228.363007 -140.088272 1105.000000 25 21 10
230.281998 -140.088272 1105.000000 23 25 17
231.570633 -139.707947 1102.000000 27 25 25
232.636932 -139.200836 1098.000000 32 26 32
233.902924 -138.820511 1095.000000 34 24 39
235.804626 -138.820511 1095.000000 36 23 37
236.837906 -138.313400 1091.000000 41 32 35
238.732666 -138.313400 1091.000000 46 42 42
239.965652 -137.933075 1088.000000 50 43 50
241.188248 -137.552734 1085.000000 55 44 54
242.176453 -137.045624 1081.000000 57 54 58
243.376465 -136.665298 1078.000000 60 56 57
245.248642 -136.665298 1078.000000 66 59 56
246.203766 -136.158203 1074.000000 73 67 63
247.375992 -135.777863 1071.000000 73 69 71
248.537857 -135.397537 1068.000000 74 74 70
249.454788 -134.890427 1064.000000 78 76 69
249.885544 -134.129776 1058.000000 83 79 74
251.009125 -133.749435 1055.000000 81 76 80
251.163666 -132.862000 1048.000000 79 76 78
252.259552 -132.481674 1045.000000 78 73 77
252.615524 -131.721008 1039.000000 78 68 79
252.950760 -130.960342 1033.000000 77 70 81
254.004883 -130.580017 1030.000000 77 73 81
254.800232 -130.072906 1026.000000 77 69 81
255.831848 -129.692581 1023.000000 76 66 79
256.852997 -129.312256 1020.000000 72 74 77
257.863770 -128.931915 1017.000000 68 72 76
259.629944 -128.931915 1017.000000 69 67 75
261.396118 -128.931915 1017.000000 71 64 74
262.386047 -128.551590 1014.000000 75 66 74
264.147003 -128.551590 1014.000000 79 69 74
265.908020 -128.551590 1014.000000 82 77 75
266.877045 -128.171265 1011.000000 86 73 80
267.835663 -127.790932 1008.000000 83 72 85
269.586243 -127.790932 1008.000000 81 71 85
277.258820 -130.580017 1030.000000 77 69 85
283.111420 -132.481674 1045.000000 74 69 78
284.926208 -132.481674 1045.000000 77 69 72
286.741028 -132.481674 1045.000000 81 69 74
288.555878 -132.481674 1045.000000 85 71 77
291.204254 -132.862000 1048.000000 89 74 88
294.142761 -133.369110 1052.000000 93 79 99
296.813690 -133.749435 1055.000000 97 85 97
301.193542 -134.890427 1064.000000 102 99 96
305.035126 -135.777863 1071.000000 107 106 101
306.895050 -135.777863 1071.000000 110 108 107
308.755035 -135.777863 1071.000000 114 116 106
311.485077 -136.158203 1074.000000 109 100 106
314.517242 -136.665298 1078.000000 105 87 99
317.269928 -137.045624 1081.000000 94 72 92
319.147217 -137.045624 1081.000000 84 58 94
321.024597 -137.045624 1081.000000 84 55 97
324.096741 -137.552734 1085.000000 84 53 99
328.985443 -138.820511 1095.000000 87 48 101
330.887115 -138.820511 1095.000000 90 44 115
11.514143 -142.007263 1105.000000 146 122 137
13.396661 -141.621719 1102.000000 126 104 125
15.254866 -141.107666 1098.000000 106 99 117
17.161768 -141.107666 1098.000000 105 95 110
18.773367 -138.922943 1081.000000 105 97 109
20.593435 -138.537399 1078.000000 106 99 108
22.319654 -137.637802 1071.000000 107 82 102
24.179596 -137.637802 1071.000000 98 66 96
25.869413 -136.738220 1064.000000 90 68 87
27.560900 -135.967133 1058.000000 88 71 79
29.398335 -135.967133 1058.000000 86 70 75
31.147131 -135.581604 1055.000000 83 69 71
32.885506 -135.196045 1052.000000 80 67 68
34.712521 -135.196045 1052.000000 78 71 65
36.400532 -134.681992 1048.000000 77 72 63
38.001781 -133.910919 1042.000000 75 73 61
39.811359 -133.910919 1042.000000 74 70 60
41.501110 -133.525375 1039.000000 72 68 59
43.430584 -133.910919 1042.000000 71 68 58
45.240166 -133.910919 1042.000000 72 68 57
47.049812 -133.910919 1042.000000 73 67 65
48.859394 -133.910919 1042.000000 72 66 73
50.668972 -133.910919 1042.000000 71 65 68
52.478619 -133.910919 1042.000000 70 65 63
54.444500 -134.296463 1045.000000 69 64 63
56.259357 -134.296463 1045.000000 68 64 62
58.240868 -134.681992 1048.000000 68 68 62
60.290104 -135.196045 1052.000000 69 73 61
62.294262 -135.581604 1055.000000 71 70 55
64.126419 -135.581604 1055.000000 70 68 50
65.958641 -135.581604 1055.000000 69 65 52
67.790794 -135.581604 1055.000000 68 62 55
69.820930 -135.967133 1058.000000 68 63 60
71.658371 -135.967133 1058.000000 70 65 65
73.704132 -136.352661 1061.000000 72 66 64
75.760384 -136.738220 1064.000000 70 67 62
77.608170 -136.738220 1064.000000 69 66 61
79.754669 -137.252274 1068.000000 69 65 60
81.609467 -137.252274 1068.000000 69 62 60
83.464195 -137.252274 1068.000000 66 60 60
85.558662 -137.637802 1071.000000 64 60 62
87.663475 -138.023346 1074.000000 66 60 64
89.862068 -138.537399 1078.000000 69 57 62
91.734230 -138.537399 1078.000000 67 54 60
93.606331 -138.537399 1078.000000 66 54 58
95.744209 -138.922943 1081.000000 64 54 55
97.982750 -139.436996 1085.000000 62 54 53
100.143135 -139.822540 1088.000000 58 54 52
102.314011 -140.208069 1091.000000 55 50 46
104.590752 -140.722122 1095.000000 52 47 40
106.492439 -140.722122 1095.000000 50 44 39
108.691040 -141.107666 1098.000000 47 41 39
110.597862 -141.107666 1098.000000 44 42 36
112.914619 -141.621719 1102.000000 46 44 34
115.140999 -142.007263 1105.000000 48 42 37
117.483803 -142.521317 1109.000000 46 40 39
119.840439 -143.035370 1113.000000 44 41 41
122.539185 -143.934967 1120.000000 45 43 43
124.817734 -144.320496 1123.000000 47 42 50
127.671051 -145.348602 1131.000000 55 41 58
129.635269 -145.348602 1131.000000 64 50 29
131.948471 -145.734146 1134.000000 32 1 1
133.917831 -145.734146 1134.000000 1 1 87
135.887238 -145.734146 1134.000000 127 251 174
171.391678 -178.633575 1390.000000 238 254 254
173.805618 -178.633575 1390.000000 222 225 228
176.219543 -178.633575 1390.000000 212 177 202
178.633560 -178.633575 1390.000000 203 193 203
180.396240 -177.990997 1385.000000 203 196 203
181.349731 -176.577347 1374.000000 204 198 202
182.933533 -175.806274 1368.000000 199 185 201
185.309265 -175.806274 1368.000000 195 187 177
184.117950 -172.464920 1342.000000 196 169 153
184.920258 -171.051285 1331.000000 198 207 148
186.528473 -170.408722 1326.000000 165 86 143
188.119217 -169.766144 1321.000000 133 113 143
189.692596 -169.123581 1316.000000 140 131 144
191.978119 -169.123581 1316.000000 147 130 136
193.525452 -168.481018 1311.000000 149 133 129
195.802261 -168.481018 1311.000000 151 139 143
198.079010 -168.481018 1311.000000 153 143 157
200.355743 -168.481018 1311.000000 156 144 156
202.632568 -168.481018 1311.000000 158 147 154
204.909302 -168.481018 1311.000000 161 148 157
207.186111 -168.481018 1311.000000 162 150 161
209.462860 -168.481018 1311.000000 164 148 163
211.739578 -168.481018 1311.000000 165 148 166
214.016418 -168.481018 1311.000000 167 149 165
216.293152 -168.481018 1311.000000 165 150 164
218.569962 -168.481018 1311.000000 164 148 163
220.846710 -168.481018 1311.000000 160 142 162
223.123428 -168.481018 1311.000000 157 140 165
225.400269 -168.481018 1311.000000 160 149 169
227.677002 -168.481018 1311.000000 164 152 169
229.953812 -168.481018 1311.000000 175 156 169
232.230560 -168.481018 1311.000000 186 165 167
234.507278 -168.481018 1311.000000 171 169 165
236.784119 -168.481018 1311.000000 156 186 86
239.060852 -168.481018 1311.000000 81 1 7
213.443268 -146.248199 1138.000000 55 56 43
215.419647 -146.248199 1138.000000 53 53 33
217.395935 -146.248199 1138.000000 52 44 33
219.372299 -146.248199 1138.000000 46 27 34
220.570572 -145.734146 1134.000000 41 22 30
220.381256 -144.320496 1123.000000 33 20 26
221.737625 -143.934967 1120.000000 26 22 20
223.682663 -143.934967 1120.000000 21 17 14
224.821960 -143.420898 1116.000000 16 17 17
226.150482 -143.035370 1113.000000 21 18 21
227.263657 -142.521317 1109.000000 27 19 20
229.189667 -142.521317 1109.000000 26 21 20
230.281998 -142.007263 1105.000000 26 23 26
231.570633 -141.621719 1102.000000 30 25 32
232.636932 -141.107666 1098.000000 34 22 36
233.902924 -140.722122 1095.000000 38 20 40
235.804626 -140.722122 1095.000000 43 34 42
236.837906 -140.208069 1091.000000 49 51 43
238.732666 -140.208069 1091.000000 56 51 49
239.965652 -139.822540 1088.000000 60 51 54
241.188248 -139.436996 1085.000000 64 55 63
242.176453 -138.922943 1081.000000 67 59 72
243.376465 -138.537399 1078.000000 71 61 64
244.338623 -138.023346 1074.000000 76 64 56
245.516052 -137.637802 1071.000000 82 65 62
246.683060 -137.252274 1068.000000 79 72 69
247.607010 -136.738220 1064.000000 76 71 72
248.048096 -135.967133 1058.000000 76 71 75
248.468399 -135.196045 1052.000000 77 74 77
247.916122 -133.910919 1042.000000 77 77 79
249.725708 -133.910919 1042.000000 77 74 76
250.811157 -133.525375 1039.000000 76 73 73
251.156723 -132.754303 1033.000000 76 68 73
252.216125 -132.368759 1030.000000 76 62 74
254.004883 -132.368759 1030.000000 77 61 71
254.800232 -131.854706 1026.000000 75 60 68
255.831848 -131.469177 1023.000000 74 63 71
256.852997 -131.083618 1020.000000 66 73 73
257.863770 -130.698090 1017.000000 59 71 71
259.629944 -130.698090 1017.000000 63 65 69
261.396118 -130.698090 1017.000000 67 66 69
262.386047 -130.312546 1014.000000 73 67 69
264.147003 -130.312546 1014.000000 79 73 72
265.908020 -130.312546 1014.000000 80 78 75
267.668976 -130.312546 1014.000000 81 75 78
270.227051 -130.698090 1017.000000 80 69 82
273.597961 -131.469177 1023.000000 80 70 81
277.258820 -132.368759 1030.000000 76 70 81
282.298676 -133.910919 1042.000000 73 71 79
284.108246 -133.910919 1042.000000 79 76 77
285.917847 -133.910919 1042.000000 85 74 78
287.727478 -133.910919 1042.000000 90 91 80
290.370667 -134.296463 1045.000000 95 91 87
293.024323 -134.681992 1048.000000 99 91 95
295.969696 -135.196045 1052.000000 103 96 98
300.344330 -136.352661 1061.000000 106 101 101
304.180664 -137.252274 1068.000000 109 102 105
306.035400 -137.252274 1068.000000 112 109 110
307.890198 -137.252274 1068.000000 115 111 113
310.614990 -137.637802 1071.000000 120 113 116
313.350220 -138.023346 1074.000000 125 113 107
316.389435 -138.537399 1078.000000 116 113 98
319.147217 -138.922943 1081.000000 108 96 93
321.024597 -138.922943 1081.000000 100 79 89
324.096741 -139.436996 1085.000000 93 72 89
328.985443 -140.722122 1095.000000 89 65 90
330.887115 -140.722122 1095.000000 85 22 111
7.676095 -143.926300 1105.000000 136 140 140
9.595083 -143.926300 1105.000000 131 132 143
11.514143 -143.926300 1105.000000 125 124 123
13.396661 -143.535553 1102.000000 113 97 104
15.254866 -143.014542 1098.000000 102 90 95
17.161768 -143.014542 1098.000000 101 92 86
18.773367 -140.800293 1081.000000 100 95 81
20.593435 -140.409546 1078.000000 100 95 77
22.319654 -139.497803 1071.000000 100 96 87
24.111866 -139.107056 1068.000000 93 75 97
25.796474 -138.195297 1061.000000 86 72 88
27.639050 -138.195297 1061.000000 83 70 80
29.398335 -137.804550 1058.000000 81 69 72
31.147131 -137.413803 1055.000000 77 68 64
32.979286 -137.413803 1055.000000 74 67 57
34.712521 -137.023041 1052.000000 71 71 50
36.400532 -136.502045 1048.000000 68 75 53
38.111191 -136.111298 1045.000000 65 64 56
39.925980 -136.111298 1045.000000 63 54 57
41.620937 -135.720551 1042.000000 62 57 59
43.430584 -135.720551 1042.000000 61 60 54
45.240166 -135.720551 1042.000000 62 64 50
47.049812 -135.720551 1042.000000 63 68 54
48.859394 -135.720551 1042.000000 60 61 58
50.814854 -136.111298 1045.000000 58 55 55
52.629711 -136.111298 1045.000000 53 55 53
54.444500 -136.111298 1045.000000 48 55 51
56.259357 -136.111298 1045.000000 51 56 49
58.240868 -136.502045 1048.000000 54 58 46
60.290104 -137.023041 1052.000000 55 61 44
62.294262 -137.413803 1055.000000 56 64 37
64.126419 -137.413803 1055.000000 56 57 30
65.958641 -137.413803 1055.000000 57 50 39
67.983566 -137.804550 1058.000000 54 50 48
70.018906 -138.195297 1061.000000 51 50 51
71.861565 -138.195297 1061.000000 56 51 54
73.912529 -138.586044 1064.000000 61 53 49
75.760384 -138.586044 1064.000000 58 58 44
77.608170 -138.586044 1064.000000 56 64 46
79.754669 -139.107056 1068.000000 57 58 49
81.609467 -139.107056 1068.000000 58 53 53
83.464195 -139.107056 1068.000000 58 51 57
85.558662 -139.497803 1071.000000 58 50 60
87.663475 -139.888550 1074.000000 64 50 63
89.862068 -140.409546 1078.000000 70 50 58
91.734230 -140.409546 1078.000000 66 49 53
93.606331 -140.409546 1078.000000 62 49 50
96.098488 -141.321304 1085.000000 60 53 47
97.982750 -141.321304 1085.000000 57 56 46
100.143135 -141.712051 1088.000000 53 49 45
102.314011 -142.102798 1091.000000 50 42 39
104.590752 -142.623795 1095.000000 46 38 34
106.784203 -143.014542 1098.000000 43 35 36
109.086990 -143.535553 1102.000000 39 34 38
111.000771 -143.535553 1102.000000 35 33 36
113.222008 -143.926300 1105.000000 39 35 35
115.557800 -144.447296 1109.000000 44 37 32
117.483803 -144.447296 1109.000000 43 37 29
120.163452 -145.359055 1116.000000 43 38 29
122.539185 -145.880051 1120.000000 44 36 30
124.817734 -146.270798 1123.000000 45 34 42
127.219513 -146.791794 1127.000000 52 37 54
129.635269 -147.312805 1131.000000 60 41 27
131.948471 -147.703552 1134.000000 31 11 1
133.917831 -147.703552 1134.000000 2 1 48
135.887238 -147.703552 1134.000000 84 111 95
168.977661 -181.047562 1390.000000 166 221 174
171.391678 -181.047562 1390.000000 196 254 254
173.805618 -181.047562 1390.000000 227 228 231
176.219543 -181.047562 1390.000000 216 186 209
178.633560 -181.047562 1390.000000 206 193 207
180.396240 -180.396317 1385.000000 205 195 205
181.349731 -178.963562 1374.000000 205 196 204
183.735870 -178.963562 1374.000000 200 185 203
185.309265 -178.182068 1368.000000 196 180 179
183.294785 -174.014053 1336.000000 197 170 155
184.920258 -173.362808 1331.000000 198 212 150
186.528473 -172.711563 1326.000000 166 90 146
188.119217 -172.060318 1321.000000 134 106 147
189.692596 -171.409058 1316.000000 141 130 149
191.978119 -171.409058 1316.000000 148 131 142
193.525452 -170.757813 1311.000000 150 132 136
195.802261 -170.757813 1311.000000 152 138 144
198.079010 -170.757813 1311.000000 154 143 153
200.355743 -170.757813 1311.000000 157 145 153
202.632568 -170.757813 1311.000000 159 147 154
204.909302 -170.757813 1311.000000 162 148 158
207.186111 -170.757813 1311.000000 163 149 162
209.462860 -170.757813 1311.000000 165 149 166
211.739578 -170.757813 1311.000000 166 150 170
214.016418 -170.757813 1311.000000 167 151 167
216.293152 -170.757813 1311.000000 166 150 165
218.569962 -170.757813 1311.000000 165 149 167
220.846710 -170.757813 1311.000000 163 144 169
223.123428 -170.757813 1311.000000 161 141 169
225.400269 -170.757813 1311.000000 164 149 170
227.677002 -170.757813 1311.000000 168 148 167
229.953812 -170.757813 1311.000000 176 159 165
232.230560 -170.757813 1311.000000 184 169 163
234.507278 -170.757813 1311.000000 168 168 161
236.784119 -170.757813 1311.000000 152 182 81
239.060852 -170.757813 1311.000000 78 1 1
213.443268 -148.224548 1138.000000 55 56 35
215.419647 -148.224548 1138.000000 53 51 26
216.631790 -147.703552 1134.000000 52 46 27
218.601212 -147.703552 1134.000000 47 29 29
219.987061 -147.312805 1131.000000 42 24 27
220.381256 -146.270798 1123.000000 38 23 25
221.737625 -145.880051 1120.000000 33 23 14
223.682663 -145.880051 1120.000000 30 20 3
224.821960 -145.359055 1116.000000 28 19 12
226.150482 -144.968292 1113.000000 32 29 22
227.263657 -144.447296 1109.000000 36 39 26
229.189667 -144.447296 1109.000000 37 29 30
230.281998 -143.926300 1105.000000 37 20 34
230.730103 -143.014542 1098.000000 41 33 39
232.636932 -143.014542 1098.000000 45 46 40
233.902924 -142.623795 1095.000000 49 46 42
235.804626 -142.623795 1095.000000 53 46 47
236.837906 -142.102798 1091.000000 59 55 52
238.732666 -142.102798 1091.000000 66 56 55
239.965652 -141.712051 1088.000000 66 57 59
241.188248 -141.321304 1085.000000 67 63 72
242.176453 -140.800293 1081.000000 68 63 86
243.376465 -140.409546 1078.000000 70 67 71
244.338623 -139.888550 1074.000000 73 65 56
244.828323 -139.107056 1068.000000 76 64 61
245.759155 -138.586044 1064.000000 74 64 67
246.210724 -137.804550 1058.000000 73 64 74
247.344742 -137.413803 1055.000000 73 63 82
246.815094 -136.111298 1045.000000 74 63 80
247.916122 -135.720551 1042.000000 74 68 78
249.006729 -135.329803 1039.000000 73 73 73
249.362778 -134.548294 1033.000000 74 71 69
250.427322 -134.157547 1030.000000 75 69 68
252.216125 -134.157547 1030.000000 75 64 68
253.018463 -133.636551 1026.000000 75 60 62
254.800232 -133.636551 1026.000000 74 60 56
255.831848 -133.245804 1023.000000 73 61 63
256.852997 -132.855042 1020.000000 68 69 70
257.863770 -132.464294 1017.000000 63 71 66
259.629944 -132.464294 1017.000000 66 67 63
261.396118 -132.464294 1017.000000 69 69 63
263.162323 -132.464294 1017.000000 74 70 64
264.147003 -132.073547 1014.000000 79 77 70
265.908020 -132.073547 1014.000000 80 77 76
268.460876 -132.464294 1017.000000 81 77 77
271.821320 -133.245804 1023.000000 80 66 79
274.400299 -133.636551 1026.000000 79 70 78
277.258820 -134.157547 1030.000000 77 69 78
279.860413 -134.548294 1033.000000 76 73 80
283.290283 -135.329803 1039.000000 81 73 82
285.917847 -135.720551 1042.000000 86 80 82
287.727478 -135.720551 1042.000000 91 88 83
289.537048 -135.720551 1042.000000 97 96 87
293.024323 -136.502045 1048.000000 102 98 92
295.969696 -137.023041 1052.000000 107 101 99
298.645874 -137.413803 1055.000000 107 101 107
302.186981 -138.195297 1061.000000 108 99 110
304.889191 -138.586044 1064.000000 109 100 113
306.737061 -138.586044 1064.000000 109 102 119
308.584839 -138.586044 1064.000000 112 104 126
311.599640 -139.107056 1068.000000 114 106 115
313.454468 -139.107056 1068.000000 112 107 105
315.309204 -139.107056 1068.000000 111 108 93
320.133698 -140.409546 1078.000000 108 98 81
324.096741 -141.321304 1085.000000 106 89 80
328.985443 -142.623795 1095.000000 97 74 79
330.887115 -142.623795 1095.000000 87 1 107
7.676095 -145.845291 1105.000000 121 106 115
9.595083 -145.845291 1105.000000 113 98 110
11.514143 -145.845291 1105.000000 105 94 91
13.396661 -145.449326 1102.000000 101 90 72
15.213185 -144.525421 1095.000000 98 87 75
17.052359 -143.997482 1091.000000 96 82 79
18.773367 -142.677612 1081.000000 95 80 76
20.593435 -142.281647 1078.000000 94 79 74
22.319654 -141.357742 1071.000000 93 81 73
24.111866 -140.961792 1068.000000 87 84 73
25.869413 -140.433823 1064.000000 82 69 73
27.639050 -140.037872 1061.000000 79 63 73
29.398335 -139.641907 1058.000000 76 55 68
31.147131 -139.245956 1055.000000 72 48 64
32.979286 -139.245956 1055.000000 68 54 56
34.712521 -138.849991 1052.000000 63 61 49
36.539467 -138.849991 1052.000000 59 52 51
38.220604 -138.322052 1048.000000 56 43 54
40.040600 -138.322052 1048.000000 53 38 51
41.740768 -137.926086 1045.000000 52 33 49
43.555630 -137.926086 1045.000000 52 38 39
45.370415 -137.926086 1045.000000 52 44 29
47.049812 -137.530136 1042.000000 53 41 40
49.000061 -137.926086 1045.000000 49 39 50
50.814854 -137.926086 1045.000000 46 32 49
52.780800 -138.322052 1048.000000 36 26 49
54.600800 -138.322052 1048.000000 27 23 37
56.420868 -138.322052 1048.000000 33 21 25
58.463161 -138.849991 1052.000000 40 20 33
60.462036 -139.245956 1055.000000 41 19 42
62.294262 -139.245956 1055.000000 42 26 36
64.126419 -139.245956 1055.000000 43 34 31
66.146202 -139.641907 1058.000000 45 38 27
68.176338 -140.037872 1061.000000 39 42 24
70.216888 -140.433823 1064.000000 34 40 33
72.064743 -140.433823 1064.000000 42 39 43
74.190399 -140.961792 1068.000000 51 41 43
76.045197 -140.961792 1068.000000 47 44 44
77.899925 -140.961792 1068.000000 43 42 45
79.754669 -140.961792 1068.000000 45 40 47
81.609467 -140.961792 1068.000000 47 40 49
83.698647 -141.357742 1071.000000 49 40 52
85.558662 -141.357742 1071.000000 52 42 53
87.663475 -141.753708 1074.000000 62 44 55
89.862068 -142.281647 1078.000000 72 48 54
91.734230 -142.281647 1078.000000 65 52 53
93.866829 -142.677612 1081.000000 59 52 51
96.364204 -143.601517 1088.000000 56 53 48
98.253662 -143.601517 1088.000000 53 43 48
100.419266 -143.997482 1091.000000 49 33 48
102.970467 -144.921387 1098.000000 45 33 41
104.877296 -144.921387 1098.000000 41 34 34
107.173218 -145.449326 1102.000000 37 30 33
109.383965 -145.845291 1105.000000 31 27 33
111.302948 -145.845291 1105.000000 26 29 32
114.041718 -146.901184 1113.000000 33 31 31
115.974594 -146.901184 1113.000000 40 32 29
117.907555 -146.901184 1113.000000 41 34 27
120.917168 -148.221054 1123.000000 42 34 23
122.867409 -148.221054 1123.000000 43 34 19
125.262321 -148.748993 1127.000000 44 33 35
127.671051 -149.276947 1131.000000 50 33 50
129.635269 -149.276947 1131.000000 56 41 33
131.599396 -149.276947 1131.000000 30 21 15
133.563553 -149.276947 1131.000000 4 11 55
135.527756 -149.276947 1131.000000 41 1 95
168.977661 -183.461502 1390.000000 78 111 164
173.805618 -183.461502 1390.000000 232 221 219
176.219543 -183.461502 1390.000000 220 195 206
178.633560 -183.461502 1390.000000 209 195 205
180.396240 -182.801559 1385.000000 207 195 204
181.349731 -181.349701 1374.000000 206 195 204
183.735870 -181.349701 1374.000000 201 185 204
185.309265 -180.557785 1368.000000 197 181 183
184.803940 -177.786072 1347.000000 198 171 163
185.614929 -176.334213 1336.000000 199 212 152
186.528473 -175.014359 1326.000000 167 95 142
188.119217 -174.354416 1321.000000 135 113 143
189.692596 -173.694473 1316.000000 142 130 145
191.978119 -173.694473 1316.000000 149 131 135
193.525452 -173.034546 1311.000000 151 132 126
195.802261 -173.034546 1311.000000 153 134 141
198.079010 -173.034546 1311.000000 155 144 156
200.355743 -173.034546 1311.000000 158 145 157
202.632568 -173.034546 1311.000000 160 147 158
204.909302 -173.034546 1311.000000 163 148 160
207.186111 -173.034546 1311.000000 164 149 162
209.462860 -173.034546 1311.000000 166 150 169
211.739578 -173.034546 1311.000000 166 151 175
214.016418 -173.034546 1311.000000 167 151 171
216.293152 -173.034546 1311.000000 167 152 167
218.569962 -173.034546 1311.000000 167 149 170
220.846710 -173.034546 1311.000000 166 147 172
223.123428 -173.034546 1311.000000 165 148 173
225.400269 -173.034546 1311.000000 168 149 174
227.677002 -173.034546 1311.000000 172 151 172
229.953812 -173.034546 1311.000000 177 162 171
232.230560 -173.034546 1311.000000 183 169 165
234.507278 -173.034546 1311.000000 166 168 160
236.784119 -173.034546 1311.000000 149 180 80
239.060852 -173.034546 1311.000000 75 1 1
211.466965 -150.200851 1138.000000 28 58 51
213.443268 -150.200851 1138.000000 56 54 43
215.419647 -150.200851 1138.000000 54 50 36
216.631790 -149.672913 1134.000000 52 44 35
218.601212 -149.672913 1134.000000 48 31 35
219.987061 -149.276947 1131.000000 44 24 34
220.381256 -148.221054 1123.000000 42 17 34
221.737625 -147.825089 1120.000000 41 19 29
223.682663 -147.825089 1120.000000 40 21 24
224.821960 -147.297134 1116.000000 40 30 30
226.760056 -147.297134 1116.000000 43 39 35
227.263657 -146.373230 1109.000000 46 44 35
229.189667 -146.373230 1109.000000 47 53 34
230.281998 -145.845291 1105.000000 49 55 37
230.730103 -144.921387 1098.000000 53 58 41
232.001312 -144.525421 1095.000000 57 58 43
233.902924 -144.525421 1095.000000 60 58 45
235.804626 -144.525421 1095.000000 64 59 57
236.837906 -143.997482 1091.000000 70 60 69
238.732666 -143.997482 1091.000000 76 59 64
239.965652 -143.601517 1088.000000 73 58 60
241.188248 -143.205566 1085.000000 71 60 67
242.176453 -142.677612 1081.000000 70 63 73
242.473389 -141.753708 1074.000000 69 61 66
243.656113 -141.357742 1071.000000 70 60 58
243.911362 -140.433823 1064.000000 71 62 63
245.066223 -140.037872 1061.000000 70 64 69
245.512589 -139.245956 1055.000000 70 63 77
245.703598 -138.322052 1048.000000 71 61 85
246.815094 -137.926086 1045.000000 72 62 81
247.202347 -137.134171 1039.000000 71 63 78
249.006729 -137.134171 1039.000000 70 65 72
249.362778 -136.342255 1033.000000 72 68 67
250.427322 -135.946289 1030.000000 74 67 66
252.216125 -135.946289 1030.000000 74 66 65
253.018463 -135.418335 1026.000000 74 60 63
254.800232 -135.418335 1026.000000 73 58 61
255.831848 -135.022369 1023.000000 72 58 63
256.852997 -134.626419 1020.000000 69 65 66
258.624420 -134.626419 1020.000000 67 64 59
259.629944 -134.230453 1017.000000 69 63 53
261.396118 -134.230453 1017.000000 72 66 59
263.162323 -134.230453 1017.000000 76 74 66
264.928497 -134.230453 1017.000000 80 77 71
266.694733 -134.230453 1017.000000 81 77 76
269.252808 -134.626419 1020.000000 82 75 69
271.821320 -135.022369 1023.000000 80 63 62
274.400299 -135.418335 1026.000000 78 65 71
277.258820 -135.946289 1030.000000 79 68 80
279.860413 -136.342255 1033.000000 80 69 83
283.290283 -137.134171 1039.000000 83 71 85
285.094666 -137.134171 1039.000000 87 81 87
286.899078 -137.134171 1039.000000 93 85 89
289.537048 -137.530136 1042.000000 100 94 89
292.185516 -137.926086 1045.000000 105 100 90
294.844330 -138.322052 1048.000000 111 101 95
297.796631 -138.849991 1052.000000 109 103 101
300.478088 -139.245956 1055.000000 108 101 105
304.889191 -140.433823 1064.000000 106 102 109
306.737061 -140.433823 1064.000000 104 102 112
308.584839 -140.433823 1064.000000 104 102 116
310.432617 -140.433823 1064.000000 104 102 109
312.280487 -140.433823 1064.000000 109 102 102
314.128265 -140.433823 1064.000000 114 103 97
320.133698 -142.281647 1078.000000 117 105 92
322.005798 -142.281647 1078.000000 120 96 93
328.985443 -144.525421 1095.000000 105 84 94
5.741405 -147.363159 1102.000000 104 104 102
7.655256 -147.363159 1102.000000 103 108 90
9.569034 -147.363159 1102.000000 96 100 78
11.441203 -146.828262 1098.000000 89 93 59
13.348034 -146.828262 1098.000000 91 89 40
15.157613 -145.892212 1091.000000 93 85 56
17.005468 -145.491028 1088.000000 90 84 72
18.842833 -145.089859 1085.000000 88 83 71
20.650745 -144.554977 1081.000000 86 80 71
22.465534 -144.153809 1078.000000 85 77 60
24.179596 -143.217728 1071.000000 79 72 49
25.966669 -142.816559 1068.000000 73 67 58
27.639050 -141.880508 1061.000000 70 55 67
29.481695 -141.880508 1061.000000 67 48 65
31.235701 -141.479324 1058.000000 63 46 64
32.979286 -141.078156 1055.000000 60 44 56
34.811512 -141.078156 1055.000000 56 45 48
36.539467 -140.676987 1052.000000 52 46 50
38.366482 -140.676987 1052.000000 51 42 53
40.193428 -140.676987 1052.000000 51 37 46
41.740768 -139.740921 1045.000000 49 35 39
43.555630 -139.740921 1045.000000 47 34 24
45.370415 -139.740921 1045.000000 49 35 9
47.320736 -140.142105 1048.000000 51 37 26
49.140732 -140.142105 1048.000000 49 39 43
51.155235 -140.676987 1052.000000 47 28 44
53.284435 -141.479324 1058.000000 42 27 45
55.121799 -141.479324 1058.000000 38 27 23
57.820621 -143.618912 1074.000000 40 23 1
59.685772 -143.618912 1074.000000 42 17 20
61.550926 -143.618912 1074.000000 38 20 40
62.648540 -141.880508 1061.000000 34 23 36
64.491112 -141.880508 1061.000000 40 34 32
66.521317 -142.281677 1064.000000 46 28 16
68.626137 -142.816559 1068.000000 44 41 1
70.480865 -142.816559 1068.000000 42 39 16
72.335670 -142.816559 1068.000000 47 39 32
74.190399 -142.816559 1068.000000 52 34 38
76.045197 -142.816559 1068.000000 49 35 44
78.118752 -143.217728 1071.000000 46 36 44
79.978699 -143.217728 1071.000000 47 40 45
81.838707 -143.217728 1071.000000 48 41 46
83.933098 -143.618912 1074.000000 50 40 48
85.798317 -143.618912 1074.000000 52 37 47
87.989960 -144.153809 1078.000000 58 44 47
